# .PCD v0.7 - Point Cloud Data file format
VERSION 0.7
FIELDS x y z
SIZE 4 4 4
TYPE F F F
COUNT 1 1 1
WIDTH 233
HEIGHT 1
VIEWPOINT 0 0 0 1 0 0 0
POINTS 233
DATA ascii
-0.10756299 -0.035125736 0.95688397
-0.10609198 -0.029015388 0.95586467
-0.094684631 -0.053728372 0.96495253
-0.075126506 -0.055676389 0.96399122
-0.11088766 -0.042224288 0.96306336
-0.10405527 -0.044343226 0.96469194
-0.096442789 -0.045601044 0.96579182
-0.11442449 -0.033499435 0.96473718
-0.10605875 -0.03552248 0.96559781
-0.09588363 -0.036213871 0.96585733
-0.11444566 -0.025637925 0.963687
-0.10609778 -0.024285702 0.96391088
-0.095358066 -0.027418334 0.96735287
-0.1023314 -0.016492866 0.96479434
-0.092121683 -0.051535767 0.97448766
-0.084263511 -0.053555839 0.97328639
-0.10322092 -0.043455619 0.97030956
-0.09403193 -0.044091474 0.97458208
-0.085079305 -0.044590872 0.97637689
-0.11209823 -0.032768469 0.97380221
-0.1043696 -0.035065819 0.97482246
-0.094797067 -0.035508342 0.97551602
-0.11557009 -0.024754882 0.97432047
-0.10698947 -0.025438303 0.97647864
-0.096063584 -0.025990052 0.97391021
-0.089354508 -0.027371148 0.97515386
-0.11462376 -0.017650599 0.97513753
-0.10634603 -0.018604387 0.97706276
-0.096297503 -0.017622028 0.97476786
-0.10426929 -0.0096497405 0.97184134
-0.085056156 -0.050226875 0.98533911
-0.10351346 -0.041837964 0.98078209
-0.096302882 -0.041858573 0.98231578
-0.085932493 -0.04401556 0.98622823
-0.1118525 -0.033914439 0.98236436
-0.10403189 -0.033970594 0.98532122
-0.095152766 -0.034174532 0.98594201
-0.086312465 -0.034732211 0.98665798
-0.11411593 -0.022995846 0.98605788
-0.105235 -0.025733503 0.98424834
-0.094772086 -0.025149776 0.98624724
-0.1163601 -0.015403192 0.98626119
-0.10755999 -0.014565524 0.98409539
-0.098463155 -0.019431073 0.98061126
-0.08699666 -0.0185581 0.98741907
-0.09155973 -0.04010468 0.99181962
-0.08482524 -0.041409794 0.99415731
-0.11047789 -0.030120805 0.9958545
-0.10398861 -0.032272279 0.99579543
-0.095662169 -0.034891028 0.99613583
-0.08474113 -0.035601571 0.99320322
-0.11286528 -0.024491701 0.99600565
-0.10563976 -0.024416341 0.99332339
-0.097713575 -0.027113924 0.99511576
-0.10569713 -0.016515054 0.99478716
-0.097344205 -0.011321599 0.9994148
-0.073224016 -0.018350217 0.99560595
-0.11292259 -0.0049857604 0.9970271
-0.10608407 -0.0073635913 0.99259174
-0.11288065 0.0042106542 0.99523461
-0.10985975 7.3533818e-05 0.99861872
-0.01791732 -0.078200229 1.0082707
-0.080746084 -0.04001686 1.0021259
-0.10187492 -0.0318496 1.0089839
-0.092419729 -0.032627545 1.0045191
-0.08462657 -0.034760397 1.0041555
-0.075356208 -0.034545388 1.0059897
-0.11117382 -0.021295881 1.001707
-0.10431597 -0.022969827 1.0030246
-0.095456742 -0.025917612 1.0041171
-0.085123099 -0.02798738 1.0064471
-0.1146025 -0.014910758 1.0041667
-0.1061519 -0.017303796 1.0051384
-0.095588177 -0.019354753 1.0044305
-0.080802076 -0.018778337 1.0097069
-0.072837457 -0.017969631 1.0057955
-0.11692227 -0.0059882072 1.0059744
-0.10319372 -0.0035681338 1.0040624
-0.024415269 -0.083234526 1.0170226
-0.014888595 -0.084584638 1.0152115
-0.01567742 -0.077765256 1.0168837
-0.093793057 -0.03210682 1.0147549
-0.085028633 -0.033952124 1.0154468
-0.11176188 -0.021343796 1.0116246
-0.10387807 -0.023591388 1.0134441
-0.094599426 -0.025871936 1.0143163
-0.085504815 -0.026796963 1.0169193
-0.07417161 -0.026463117 1.0135506
-0.064823434 -0.026709059 1.0138334
-0.11422277 -0.012898802 1.0159025
-0.10647649 -0.014662495 1.0164363
-0.094213866 -0.018372886 1.0137292
-0.085556664 -0.018347388 1.0175753
-0.075386405 -0.018351525 1.0134027
-0.11607739 -0.0070437933 1.0155357
-0.10862891 -0.0086196931 1.0116411
-0.020316619 -0.081920318 1.0259864
-0.013991101 -0.083137505 1.0277361
-0.041988831 -0.071492136 1.0252566
-0.033616256 -0.072614938 1.0232394
-0.025684077 -0.074957535 1.0236092
-0.016035551 -0.076037928 1.0249888
-0.051395137 -0.060719267 1.0215409
-0.043838862 -0.064153448 1.0241585
-0.036079701 -0.066550672 1.0247675
-0.062170997 -0.051997237 1.0222937
-0.054635983 -0.054395698 1.0251737
-0.046894684 -0.055349756 1.0233039
-0.037126459 -0.05794863 1.027699
-0.072788335 -0.042085964 1.0262882
-0.064929351 -0.044694934 1.0232606
-0.05631689 -0.046647713 1.0262144
-0.092454523 -0.033641089 1.0246308
-0.083934687 -0.034163192 1.0257123
-0.074884698 -0.035666719 1.0251795
-0.065953389 -0.037934192 1.02317
-0.05789195 -0.039664008 1.0244616
-0.11068928 -0.020173706 1.0232046
-0.09551274 -0.024592146 1.0249655
-0.085541934 -0.027203217 1.0284004
-0.075319178 -0.026453864 1.0253609
-0.068175316 -0.029185418 1.0296693
-0.1142867 -0.014925356 1.0256242
-0.10661167 -0.016122051 1.0259968
-0.096504524 -0.015335448 1.022796
-0.076703437 -0.018125804 1.0236263
-0.11520912 -0.0063073104 1.024809
-0.1099597 -0.0098855421 1.0294116
-0.022640333 -0.08358223 1.0338748
-0.015890511 -0.082628302 1.0341952
-0.042088192 -0.071329281 1.034936
-0.034078613 -0.074940398 1.0328845
-0.026302872 -0.076539189 1.0336788
-0.014471832 -0.077016555 1.0350548
-0.053550176 -0.062008008 1.0329562
-0.045511633 -0.064626276 1.0348096
-0.036384944 -0.067868084 1.0364791
-0.02822696 -0.068967767 1.0389221
-0.062271446 -0.05465975 1.0332867
-0.054859649 -0.055244055 1.035514
-0.046381127 -0.055423774 1.0345807
-0.071069077 -0.044726577 1.0329341
-0.064825043 -0.04451026 1.0353359
-0.05766011 -0.047410522 1.0347204
-0.10191745 -0.032346144 1.0312833
-0.094695963 -0.031651791 1.0359823
-0.086393692 -0.032112647 1.0377227
-0.072947375 -0.034437913 1.0353185
-0.065232553 -0.036125559 1.0331868
-0.11211427 -0.023237277 1.0327318
-0.10421464 -0.024673481 1.033363
-0.095212378 -0.025508285 1.0355939
-0.083591379 -0.026600048 1.0337236
-0.074980639 -0.027056973 1.0343399
-0.12406562 -0.013034179 1.0349363
-0.11482146 -0.013618255 1.037057
-0.10573875 -0.015536399 1.0362077
-0.098580055 -0.017256428 1.0353369
-0.081186473 -0.019478243 1.0320239
-0.07787542 -0.019478243 1.0342431
-0.12372932 -0.0061287759 1.0347199
-0.11915879 -0.0092190048 1.0380392
-0.03165153 -0.081516579 1.0409169
-0.024095964 -0.083357759 1.0418577
-0.016753662 -0.082562864 1.0438316
-0.044533543 -0.071888208 1.043788
-0.035507232 -0.073732287 1.045437
-0.026302733 -0.076883592 1.0455568
-0.060256064 -0.060089394 1.043442
-0.054362003 -0.063761644 1.0434642
-0.045161434 -0.063364804 1.0443804
-0.037775617 -0.066647016 1.0431962
-0.063616961 -0.052937824 1.0442111
-0.055573434 -0.056796953 1.045764
-0.048518416 -0.059058566 1.0463922
-0.085330382 -0.040514056 1.0431936
-0.073091663 -0.042972606 1.043654
-0.065362602 -0.044011943 1.0434351
-0.057969917 -0.043922059 1.0452421
-0.096283004 -0.033552296 1.0452385
-0.08372996 -0.035575055 1.0467564
-0.075559206 -0.035422031 1.0442578
-0.067363873 -0.037759956 1.0429616
-0.11306328 -0.021372404 1.0451728
-0.10457151 -0.024423517 1.045917
-0.095978193 -0.026318781 1.0464462
-0.084729724 -0.027276689 1.0430253
-0.076953657 -0.02646184 1.0455563
-0.067634389 -0.028479485 1.0409777
-0.12543578 -0.014528489 1.0462213
-0.11425202 -0.016076032 1.0457785
-0.10659034 -0.017310496 1.0442859
-0.098495722 -0.019252017 1.0447419
-0.084861539 -0.019273322 1.0413251
-0.077832624 -0.01927332 1.0459889
-0.12391076 -0.0063550901 1.0437728
-0.11548553 -0.0076631657 1.0401914
-0.05428778 -0.063923039 1.0526129
-0.044917822 -0.064836539 1.0506402
-0.064516403 -0.052996356 1.0590189
-0.05397192 -0.056323536 1.0553017
-0.049017128 -0.059159059 1.0501914
-0.080595843 -0.043948948 1.0524108
-0.074984156 -0.044346903 1.052411
-0.064987957 -0.046541374 1.0514936
-0.057271358 -0.049069375 1.0502712
-0.10340658 -0.031583797 1.0589132
-0.092282116 -0.033774491 1.0580738
-0.084637545 -0.034667052 1.0578636
-0.073045768 -0.035850771 1.0540413
-0.067739069 -0.037617661 1.0568146
-0.12276449 -0.020206604 1.0538236
-0.11348009 -0.021603053 1.0533882
-0.10655814 -0.022693587 1.0530344
-0.095387831 -0.025715251 1.0517188
-0.12228049 -0.013381552 1.0578107
-0.11454454 -0.013930148 1.0578108
-0.10791375 -0.014400369 1.0578105
-0.12497782 -0.0070399852 1.0507525
-0.082286313 -0.043259524 1.0642071
-0.075296059 -0.041632909 1.0654837
-0.067465216 -0.044310555 1.064207
-0.10345925 -0.035535209 1.0679337
-0.097851403 -0.036542237 1.067571
-0.083176807 -0.039659157 1.0663347
-0.07975655 -0.039901704 1.0663346
-0.11344843 -0.022080187 1.064078
-0.10583632 -0.026081098 1.0620571
-0.099785559 -0.028240737 1.0610467
-0.12497009 -0.017537167 1.0662361
-0.11750634 -0.017268294 1.0666953
-0.11420766 -0.024823988 1.073761
-0.10636919 -0.027393986 1.0725967
