# .PCD v0.7 - Point Cloud Data file format
VERSION 0.7
FIELDS x y z normal_x normal_y normal_z curvature
SIZE 4 4 4 4 4 4 4
TYPE F F F F F F F
COUNT 1 1 1 1 1 1 1
WIDTH 570
HEIGHT 1
VIEWPOINT 0 0 0 1 0 0 0
POINTS 570
DATA ascii
0.36245936 -0.20760654 0.88250732 0.0086064069 -0.006546855 -0.0021885931 0.011032746
0.36751333 -0.20729712 0.88257164 0.0091418 -0.0058531463 -0.0016708076 0.01098287
0.37244833 -0.20736666 0.88243383 -0.0086710416 -0.030255333 -0.011741251 0.033592097
0.37732375 -0.20741126 0.88200784 0.0010726787 -0.028148144 -0.0099518597 0.029874876
0.38270354 -0.20747948 0.88214594 0.005130522 -0.036502346 -0.012776196 0.039012495
0.38745487 -0.2075998 0.88264292 -0.01381804 -0.023545831 -0.01095435 0.029416699
0.39226145 -0.20744036 0.88252777 -0.013330102 -0.015941843 -0.0085565448 0.022473283
0.39726779 -0.20765993 0.88291061 -0.01371152 0.0082152933 -0.00068962574 0.015999136
0.40144637 -0.20788604 0.88373083 -0.02749867 0.0092390031 -0.004847914 0.029411532
0.40576833 -0.20819624 0.88418478 -0.014293045 0.025501534 0.0040198565 0.029508958
0.41166162 -0.20901874 0.88463509 -0.023316488 0.028752044 0.0023173988 0.037090551
0.32373726 -0.20467725 0.88440269 0.010439865 -0.0032175183 -0.0041679144 0.011692507
0.32766983 -0.20330964 0.88420159 0.0052881539 -0.002106607 -0.0021364093 0.006080017
0.33312696 -0.20287004 0.88356358 0.0037340522 0.0041783601 0.00081071258 0.0056620752
0.33789459 -0.20275456 0.88308734 0.0013370439 -0.00047867 -0.00040373206 0.0014764183
0.34267893 -0.20264345 0.88259619 0.0024373382 -0.0011799037 -0.00077539682 0.0028167411
0.34749684 -0.20244192 0.88243937 0.0089198835 0.00098706782 -0.0005659759 0.0089921607
0.35266563 -0.20238531 0.88224041 0.0050233174 0.013944328 0.0047959685 0.015578168
0.35743839 -0.20246156 0.88222343 0.0019478081 0.009945035 0.0035915673 0.010751606
0.36226451 -0.20251597 0.88248074 0.005037901 -0.0054202378 -0.0020964742 0.0076912045
0.3674669 -0.20243053 0.88264173 0.0016113836 -0.01344049 -0.0052890182 0.014533307
0.37246066 -0.202563 0.88254392 -0.0098614246 -0.010723323 -0.0050212145 0.015409411
0.37721688 -0.2023773 0.88227636 0.0021330602 -0.017095238 -0.00659585 0.018447286
0.38264823 -0.20250191 0.88248688 0.017765775 -0.016827852 -0.0045154989 0.024883511
0.38749024 -0.20273234 0.88290733 0.0083209872 -0.011641666 -0.003154099 0.014653176
0.39197174 -0.20262288 0.88318849 -0.0041105598 -0.010501623 -0.0050060153 0.012338597
0.397311 -0.20312646 0.88374454 -0.0088005662 -0.0035354644 -0.003598392 0.01014386
0.40114757 -0.20359264 0.88450807 -0.016267747 0.018002644 0.0019216239 0.024339832
0.33374652 -0.19809155 0.88407576 0.0063812062 -0.0030523837 -0.0026767254 0.0075631803
0.33844331 -0.19790913 0.88389367 0.015845194 -0.00078618526 -0.0032200813 0.016188182
0.34329811 -0.19776605 0.88377082 0.0086882636 -0.0012525022 -0.0017620921 0.0089531923
0.34787762 -0.19777165 0.88306081 0.012791794 -0.013099194 -0.0073442459 0.019727057
0.35312894 -0.19754502 0.88287383 0.011960151 -0.012216553 -0.006421417 0.018262638
0.3575933 -0.19764176 0.88271493 0.0044298172 0.0037400275 0.0014659464 0.0059799734
0.36238778 -0.19752954 0.88262856 -0.0017667687 -0.0085347593 -0.0038466454 0.0095268181
0.36734429 -0.19760901 0.88284171 0.0087348679 -0.014186725 -0.0061517954 0.017759664
0.37237787 -0.19752479 0.88304311 -0.023796607 -0.0058093816 -0.0049805045 0.024996657
0.37729466 -0.19770478 0.88303137 0.00029454008 -0.0021924227 -0.00093257427 0.0024006595
0.38279596 -0.19764423 0.8829174 0.01152537 -0.020019725 -0.0077147186 0.024354476
0.38731888 -0.19766791 0.8832162 0.0041880384 -0.025870442 -0.011426449 0.028589914
0.39172614 -0.19777523 0.88395768 0.00383614 -0.020469666 -0.0087225437 0.022578882
0.39686373 -0.19765489 0.88409519 0.013613358 -0.0023334622 0.0021315813 0.013975414
0.40126383 -0.19802193 0.88497728 -0.026057139 -0.0036630481 -0.0097508729 0.02806193
0.33438095 -0.19462113 0.88430256 0.0054473579 -0.012995154 -0.0075244308 0.015973877
0.33925113 -0.19447426 0.88429904 0.016151771 -0.0087504536 -0.0071652532 0.019717783
0.34397334 -0.1939542 0.88421804 0.01744277 -0.010759801 -0.0079501271 0.021982448
0.34862027 -0.19402355 0.88378561 0.012505397 -0.011774197 -0.0071685612 0.018611958
0.35301799 -0.19342925 0.88344318 0.019673206 -0.0046323836 -0.0039132237 0.02058658
0.3574315 -0.19322297 0.8834753 0.010486584 -0.019308373 -0.010371208 0.02429699
0.36230311 -0.19329292 0.88323802 -0.0015960528 -0.0099025667 -0.0049299598 0.011176435
0.36687559 -0.19350517 0.88341349 -0.006777335 -0.015182316 -0.0079202056 0.018416423
0.3722491 -0.19343185 0.88383567 -0.015543107 -0.0025120229 -0.0026281774 0.015962636
0.37716502 -0.19381548 0.88372099 -0.010003194 -0.0091153532 -0.0056766272 0.01467575
0.38308376 -0.19441439 0.88383532 0.010336913 -0.014457911 -0.0056280494 0.018642906
0.3874113 -0.1940306 0.88335621 0.016125076 -0.011985362 -0.0031998754 0.020344684
0.39185664 -0.19455469 0.88440275 -0.0016064271 -0.0086355954 -0.0045210719 0.0098789781
0.39510733 -0.19495608 0.8839435 0.0055124015 -0.0039036721 -0.00058504939 0.0067799343
0.35384566 -0.18995111 0.88495135 0.025483262 -0.017704278 -0.012123913 0.033314072
0.35656384 -0.18995002 0.88427913 0.012369277 -0.031053409 -0.018460631 0.038185183
0.3673448 -0.18991482 0.88482165 -0.0052590948 -0.025240079 -0.014560729 0.029609703
0.3706229 -0.18995869 0.88418353 0.0003587883 -0.017071575 -0.0093406439 0.01946317
0.43946511 -0.31545964 0.88940185 0.045886375 0.12698784 -0.15124123 0.20274462
0.44077745 -0.31517836 0.88872814 0.57624012 -0.10618839 -0.54045159 0.79713023
0.43412623 -0.31162518 0.88562983 0.00011148304 0.092437327 -0.094936162 0.1325049
0.43766248 -0.3126865 0.887124 0.008950308 0.10794431 -0.12075695 0.1622169
0.44158497 -0.31225303 0.88796049 0.56715828 -0.065715224 -0.54153496 0.78692257
0.44622716 -0.3135905 0.88992149 0.60116631 -0.070191354 -0.53284788 0.80638367
0.43809429 -0.30902746 0.88626045 0.51246357 -0.35042551 -0.66484773 0.90963697
0.44072774 -0.30935064 0.88774627 0.56987429 -0.14425918 -0.57468045 0.8220858
0.34828103 -0.28582188 0.8896578 0.018816695 0.039925456 -0.025506198 0.050977215
0.35294443 -0.28593308 0.88906717 0.01937313 0.038824037 -0.024560481 0.049858209
0.35752282 -0.28632474 0.88909382 0.0086122751 0.029102594 -0.017456144 0.03501213
0.3623293 -0.28615853 0.88888091 -0.0041975873 0.035362661 -0.020546675 0.041113298
0.36748815 -0.28646427 0.88900447 -0.022428669 0.040690899 -0.023831189 0.052218005
0.37218225 -0.28636789 0.88884014 -0.035621002 0.042826727 -0.025414765 0.061228219
0.37705413 -0.28636843 0.8891353 -0.05443161 0.044914424 -0.026643902 0.075432107
0.38255569 -0.28602657 0.88885325 -0.067862421 0.060309663 -0.032411069 0.096400425
0.38727528 -0.28575745 0.88970351 -0.093162738 0.065178916 -0.030697227 0.11777057
0.39918554 -0.28537822 0.88976735 -0.06857539 0.10145868 -0.036926299 0.12790622
0.40368605 -0.28573042 0.88964951 -0.056664228 0.11210139 -0.041436613 0.13226697
0.40806702 -0.28573054 0.88915259 0.086775571 0.068394691 -0.058911234 0.12521328
0.41132027 -0.28580102 0.88877362 0.14771542 0.026434124 -0.073954642 0.16729584
0.41588759 -0.2861186 0.8883993 0.2223517 -0.0303718 -0.11002713 0.24993739
0.33309039 -0.280103 0.88965374 0.012730867 0.058297709 -0.032031327 0.067725204
0.3373698 -0.2808221 0.88918322 0.020858638 0.050202787 -0.029566884 0.061883789
0.34188035 -0.28139195 0.88885546 0.015790358 0.048165172 -0.026917696 0.057391476
0.34727317 -0.2819584 0.88831711 0.016087808 0.049483344 -0.027977943 0.059077781
0.35233575 -0.28226092 0.88784134 0.014402438 0.037434489 -0.020663798 0.045119438
0.35751674 -0.28223842 0.88781029 0.014674231 0.035331622 -0.01956892 0.042972073
0.36259958 -0.28234842 0.88766491 0.0013948493 0.03083618 -0.016162366 0.034843046
0.36767936 -0.28237161 0.88778508 -0.014532536 0.034500748 -0.018147349 0.041603155
0.37259653 -0.28224835 0.88746738 -0.03408622 0.0480223 -0.025916934 0.064340495
0.37736899 -0.28230211 0.88798171 -0.053533815 0.046811789 -0.025828987 0.075659432
0.38260239 -0.28231922 0.88791877 -0.069300294 0.058152452 -0.031034619 0.095641971
0.38791028 -0.28187019 0.88814962 -0.078234121 0.074667618 -0.031879932 0.11274822
0.39296642 -0.28203228 0.888529 -0.07404846 0.086575791 -0.031258851 0.11813407
0.39786941 -0.28198531 0.88878268 -0.051634777 0.10302065 -0.035344005 0.12053466
0.40262726 -0.28197828 0.8888948 -0.046120614 0.11043045 -0.0358814 0.12493786
0.40743518 -0.28213727 0.88812971 0.060131848 0.079922929 -0.046938419 0.11048407
0.41177633 -0.2822085 0.8873741 0.15464422 0.017085284 -0.071522504 0.17123729
0.41651031 -0.28263777 0.88726783 0.21452582 -0.028924398 -0.10401398 0.24016006
0.32335496 -0.27595395 0.88996625 0.01776439 0.061975718 -0.034118503 0.072942689
0.32816556 -0.275949 0.88904589 0.020060927 0.057574943 -0.03164959 0.068695061
0.33250618 -0.2767399 0.88856214 0.019644439 0.055570215 -0.03035152 0.066296056
0.33779272 -0.27707648 0.88813919 0.014268436 0.04755497 -0.024626344 0.055421297
0.34238765 -0.27724466 0.88749218 0.0073926076 0.043648273 -0.020823777 0.048922919
0.34765822 -0.27743995 0.88747102 0.012616318 0.031242132 -0.01544708 0.037065543
0.35264924 -0.27747744 0.88750976 0.011595119 0.029729649 -0.014145583 0.034905534
0.35768998 -0.27756763 0.88760287 0.012224756 0.021998629 -0.010207862 0.027158512
0.36261564 -0.27748606 0.88748509 0.014113088 0.019586146 -0.0089098811 0.025732905
0.36757591 -0.27756897 0.88757092 -0.0060871937 0.027348936 -0.011940956 0.030456603
0.37259972 -0.27747759 0.88737351 -0.02262217 0.032478645 -0.014643729 0.042202652
0.37736303 -0.27752626 0.88729131 -0.04729433 0.045880839 -0.021450132 0.069295838
0.38265496 -0.27751639 0.88761055 -0.066451892 0.053506717 -0.024963021 0.088893056
0.38767987 -0.27737683 0.88773483 -0.086924553 0.069324464 -0.028099626 0.11467932
0.3926242 -0.2774725 0.88762623 -0.079251707 0.086918823 -0.026891232 0.12066007
0.39788228 -0.27733165 0.88720423 -0.054805256 0.08789172 -0.022924274 0.10608531
0.40237293 -0.27753866 0.88761747 -0.023205861 0.095501073 -0.02672556 0.10184902
0.40710017 -0.2775085 0.88774544 0.019708663 0.075244755 -0.024973989 0.08169397
0.41195983 -0.27743393 0.88719594 0.10226589 0.029120348 -0.041256368 0.11405435
0.41706982 -0.27778542 0.88662422 0.19407757 -0.049223635 -0.085500151 0.21771389
0.31847295 -0.27107278 0.88948321 0.02795507 0.058922365 -0.034159482 0.073622011
0.32346711 -0.27159116 0.8888489 0.020394668 0.052852675 -0.028214931 0.063288465
0.32757983 -0.2722562 0.88806701 0.018679135 0.05204469 -0.026864529 0.061475705
0.33236092 -0.27236634 0.88772345 0.013784625 0.051649958 -0.024749309 0.058908932
0.3375873 -0.27249604 0.88755929 0.0025072917 0.046014592 -0.019529194 0.050050162
0.34229475 -0.27250439 0.88718861 0.0025045425 0.037199557 -0.015458941 0.040361598
0.34769458 -0.27255431 0.88732541 0.0086054169 0.035096541 -0.015161216 0.039187789
0.35275075 -0.2725693 0.88703007 0.0079890043 0.032576501 -0.013670266 0.036220558
0.35772812 -0.27255857 0.88714391 0.0038818978 0.028161407 -0.011221528 0.030562341
0.36274362 -0.27274105 0.88712537 0.0055500995 0.019679487 -0.0076821148 0.021842634
0.36762619 -0.27258801 0.88705444 -0.0054570418 0.027324378 -0.010552615 0.029795278
0.37254351 -0.27265969 0.8871913 -0.0184406 0.025780752 -0.010400772 0.033359841
0.37735447 -0.2724396 0.88713211 -0.039671477 0.026566714 -0.011283249 0.049060453
0.38284039 -0.27245632 0.88734066 -0.057940334 0.044163927 -0.018819511 0.07524433
0.38755375 -0.27256048 0.88773203 -0.070132881 0.052461818 -0.019566983 0.089742579
0.39244473 -0.27254301 0.88756055 -0.073710024 0.066696718 -0.018306196 0.10107788
0.3976998 -0.27252096 0.8872968 -0.057847958 0.069902398 -0.013651162 0.091755576
0.40246817 -0.27251902 0.88721955 -0.024539191 0.067670532 -0.011480987 0.072892286
0.40712112 -0.27259061 0.88752466 -0.0040691867 0.061825559 -0.011311948 0.062983476
0.41215047 -0.27247247 0.88710511 0.068763494 0.024902605 -0.022105277 0.076401576
0.4175429 -0.27255556 0.8863225 0.17573038 -0.039032366 -0.072408915 0.19403027
0.31338769 -0.2661458 0.88939685 0.029137388 0.054465801 -0.030533552 0.068904348
0.3184084 -0.26712018 0.88863921 0.022456124 0.057124615 -0.029033005 0.067900032
0.3228555 -0.26725066 0.88777488 0.014310569 0.05108881 -0.023172557 0.05789496
0.32741207 -0.26748386 0.88741124 0.0081440806 0.042090952 -0.017481536 0.046298794
0.33236805 -0.26761714 0.88735127 0.0054460242 0.042535007 -0.016519636 0.045954157
0.33743289 -0.2676664 0.88716131 -0.0042057037 0.037300572 -0.012413561 0.039536275
0.34189925 -0.26744521 0.88673711 -0.0085643269 0.029841393 -0.0089769363 0.032317825
0.34742704 -0.2677516 0.88684583 0.0068272948 0.023824707 -0.0088842809 0.026327914
0.3523834 -0.26742679 0.88703662 0.0074340552 0.012343094 -0.0046163201 0.015130351
0.35766935 -0.2674202 0.88696313 -0.004369813 0.0089451373 -0.0027638674 0.010331975
0.36280456 -0.26752812 0.88665026 0.012014197 0.0092357099 -0.0032742918 0.015503556
0.36779788 -0.26767212 0.88652027 -0.00011252891 0.0088086277 -0.0028037131 0.0092447493
0.37238428 -0.26788032 0.88649064 -0.021061804 0.012707934 -0.0049218237 0.025086161
0.3772926 -0.26756549 0.88686728 -0.038045969 0.015538231 -0.0071785748 0.04171887
0.38312167 -0.26763177 0.88706583 -0.063142307 0.027441472 -0.012743652 0.07001704
0.38765928 -0.26754829 0.88734603 -0.075556278 0.019740604 -0.0097839534 0.078703038
0.3922343 -0.26753548 0.88760126 -0.071681514 0.032228462 -0.0086409748 0.079066932
0.39738443 -0.26750553 0.88755149 -0.067357861 0.028033666 -0.0023640096 0.072996959
0.4025594 -0.26744959 0.88715184 -0.033844024 0.038427416 -0.0021180511 0.051250078
0.4073534 -0.26764321 0.88738757 -0.019837718 0.025196591 0.00055900216 0.032073598
0.41230485 -0.26749629 0.88736123 0.039433293 0.016913718 -0.0087786913 0.04379639
0.41794425 -0.26732132 0.88661242 0.1459671 -0.036167119 -0.054491252 0.15994921
0.42033461 -0.26684368 0.88582015 0.15510345 -0.055745795 -0.063261181 0.17654079
0.3090831 -0.2611649 0.88943547 0.032446072 0.045271538 -0.027459413 0.062098946
0.31315833 -0.26209307 0.88838542 0.029547676 0.045794316 -0.025419176 0.060135838
0.31762359 -0.26240087 0.88767892 0.020995572 0.037302241 -0.018532693 0.046644744
0.32241827 -0.2625387 0.88749671 0.010008663 0.028141521 -0.011224389 0.031907763
0.32730687 -0.26267591 0.88700223 0.002564989 0.026839159 -0.0083593428 0.028227614
0.33254632 -0.26261932 0.8868289 -0.012960002 0.025432236 -0.0044634342 0.028890872
0.33755103 -0.26251492 0.88674748 -0.014741242 0.024004325 -0.0043612123 0.028504947
0.34199888 -0.26253417 0.8866877 -0.009637408 0.014318734 -0.0025828481 0.017452132
0.3472231 -0.26279253 0.88647777 0.0013267994 -0.0062541068 0.001452446 0.0065562068
0.35173213 -0.26241159 0.88684422 -0.0077157449 -0.020298064 0.0053970814 0.022375714
0.35715452 -0.26286331 0.8864069 0.004507063 -0.027816296 0.0063302815 0.028881351
0.36276352 -0.26290888 0.88615823 0.021790158 -0.02400317 0.0049530566 0.032794755
0.36786732 -0.26250187 0.88625002 0.0047739842 0.0037590638 -0.00093141198 0.0061472771
0.37268373 -0.26273367 0.88595951 -0.023553846 0.0094874427 -0.0036381185 0.025652118
0.37715971 -0.2625002 0.88638073 -0.037984863 0.011694297 -0.0057277381 0.040154867
0.38282225 -0.26279047 0.88672209 -0.059325222 0.021759704 -0.010412842 0.064042121
0.38752973 -0.26256952 0.88653988 -0.085868292 0.029787086 -0.014396042 0.092021085
0.39233676 -0.26268983 0.88719636 -0.078661695 0.02337417 -0.0088604689 0.082538001
0.39716247 -0.26249838 0.88776398 -0.063154399 0.020260323 -0.001683712 0.066346012
0.40237615 -0.26245576 0.88722998 -0.04583405 0.0072692167 0.0019747913 0.046448912
0.40748176 -0.26255038 0.88726795 -0.017354771 -0.0063118525 0.0016766787 0.018542891
0.41275543 -0.26252052 0.887227 0.033992983 -0.01599657 -0.0069140196 0.038199697
0.41822258 -0.26233247 0.88711232 0.10362986 -0.040750928 -0.033688664 0.11633878
0.4214004 -0.26200265 0.88660771 0.12674478 -0.081603065 -0.05700171 0.16115984
0.42512164 -0.26022452 0.88595474 0.16081639 -0.097121395 -0.085654348 0.2064731
0.30463955 -0.25648317 0.88992184 0.031814277 0.036599167 -0.023758113 0.054000884
0.30846691 -0.25716686 0.88907307 0.030088857 0.028731421 -0.019830406 0.046087731
0.31267211 -0.25727931 0.88763249 0.037633762 0.023144901 -0.020769447 0.048819631
0.31768838 -0.25760666 0.88747174 0.02178967 0.029802173 -0.014738381 0.039751466
0.32223946 -0.25750116 0.88721687 0.0090611428 0.017498337 -0.0066885054 0.020809427
0.32738623 -0.25769189 0.88665396 -0.0014157742 0.02231165 -0.0047590137 0.022857435
0.33291873 -0.25756165 0.88644695 -0.014509067 0.016232081 -0.00078636408 0.021785587
0.33785889 -0.25772831 0.88642257 -0.030224796 0.018665016 0.0002335012 0.035524298
0.34208518 -0.2578896 0.8863858 -0.027147658 -0.004067108 0.0042452514 0.027776949
0.34792078 -0.25778905 0.88556463 -0.019889429 -0.023479082 0.0061491132 0.031379424
0.35199437 -0.25788856 0.8865388 -0.0027877837 -0.038104109 0.0069508553 0.038833097
0.35707465 -0.25788581 0.88590223 0.011122942 -0.037091866 0.0058805645 0.039167684
0.362317 -0.25779212 0.88599128 0.0035778028 -0.040580582 0.0066749156 0.041281216
0.36729729 -0.25769317 0.88595963 0.020079043 -0.019914985 0.0034026206 0.028484248
0.37315711 -0.25784424 0.88601571 -0.0070779826 -0.0014702752 -3.683567e-05 0.0072291703
0.37785921 -0.25794306 0.88578856 -0.035972297 0.0084092468 -0.0046557486 0.037234358
0.38248828 -0.25752026 0.88643444 -0.065236226 0.011500806 -0.0091270208 0.066868052
0.38730469 -0.25750646 0.88618279 -0.078526169 0.024064891 -0.012557626 0.083085336
0.39255637 -0.25748268 0.886877 -0.077861525 0.017207809 -0.0091505349 0.080263682
0.39720523 -0.25765774 0.88757712 -0.09669143 0.026489969 -0.0089849532 0.10065625
0.40225211 -0.25747505 0.88746876 -0.079948291 0.0071778828 -0.0019255579 0.080292955
0.40749964 -0.25746951 0.88726103 -0.02386152 -0.0083626322 0.00090134144 0.025300557
0.41290581 -0.25739419 0.88712382 0.017773915 -0.033926982 -0.0064884126 0.038846515
0.41834861 -0.25741309 0.88732511 0.07148467 -0.057317674 -0.025193959 0.095026888
0.42191723 -0.25721961 0.88709933 0.10976291 -0.073180251 -0.045873553 0.13966972
0.42615804 -0.25698176 0.88624007 0.14221482 -0.091532789 -0.073099047 0.18424651
0.30269265 -0.25153595 0.88940287 0.031625167 0.029396586 -0.020670861 0.047870606
0.30736765 -0.2522288 0.8882792 0.032811806 0.031056643 -0.020592123 0.049650431
0.31258568 -0.25253028 0.88753825 0.025460541 0.025399171 -0.014733255 0.038864195
0.3178046 -0.25255582 0.88744271 0.018044919 0.020936735 -0.0099957585 0.029391857
0.32253852 -0.25266734 0.88696212 0.0045270622 0.013247006 -0.0036068261 0.014456371
0.3277736 -0.25246134 0.88622719 0.003206566 0.0092336014 -0.0023521781 0.010053567
0.33329034 -0.25241086 0.8860262 -0.010013252 0.012018897 2.592802e-06 0.0156435
0.33847305 -0.25247854 0.88607591 -0.028991438 0.0018060431 0.0040059984 0.029322574
0.34214211 -0.25228614 0.88637531 -0.063166223 -0.027154751 0.0090399981 0.069347486
0.3482326 -0.25206348 0.88596076 -0.02570617 -0.034778163 0.0060150325 0.04366358
0.35208932 -0.25245771 0.88589585 -0.0087078009 -0.041630186 0.0050530434 0.042830266
0.35588783 -0.25214207 0.88636523 -0.0088942694 -0.039632279 0.0045045316 0.040867057
0.36089468 -0.25276423 0.88580221 0.0011571124 -0.043667085 0.004506737 0.043914281
0.36761108 -0.25287169 0.88602793 0.029888529 -0.058332145 0.0044235289 0.0656927
0.37280273 -0.25196818 0.88588428 0.025786333 -0.033709578 0.0034128129 0.042578373
0.37783626 -0.25259107 0.88602763 -0.022161966 -0.0082208589 -0.00095561147 0.02365689
0.38248405 -0.25246572 0.88630235 -0.049679112 0.00052139163 -0.0055340528 0.049989115
0.38696697 -0.25231797 0.88660359 -0.064708039 0.011050541 -0.0086986721 0.066218667
0.39271328 -0.25234389 0.88679516 -0.07783179 0.019001087 -0.010765493 0.080837645
0.3971726 -0.25241077 0.88724935 -0.10207736 0.017351255 -0.012953997 0.10434874
0.40222445 -0.25242594 0.88760048 -0.08200331 0.024218179 -0.0049441159 0.085647576
0.40752143 -0.25256854 0.88741297 -0.069766983 0.0167231 -0.00079521537 0.071747661
0.4129611 -0.2525084 0.88731182 -0.0061271042 -0.0052139089 -0.0004992187 0.0080607366
0.41852304 -0.25230476 0.88743079 0.04603225 -0.030612744 -0.012084037 0.056587383
0.42193833 -0.25241029 0.88758314 0.07941027 -0.051109307 -0.027488202 0.098355241
0.42703241 -0.25227293 0.88691813 0.10584906 -0.078893811 -0.051256835 0.14161751
0.43151352 -0.25201085 0.88626218 0.14090365 -0.10663973 -0.091015339 0.19877037
0.43679363 -0.25029677 0.88547081 0.15482005 -0.12485978 -0.12158772 0.2331154
0.30342403 -0.24723144 0.88859195 0.022757649 0.022187397 -0.013435483 0.034506571
0.30770782 -0.24752727 0.88784581 0.027967051 0.019414101 -0.014584184 0.037037302
0.31250304 -0.24758257 0.88744402 0.024874836 0.01619393 -0.011882812 0.031971894
0.31794584 -0.24744578 0.8872636 0.0098711401 0.012789436 -0.0048090816 0.016856344
0.32278711 -0.24728382 0.88708544 -0.0011322647 0.0062584244 -0.00037446618 0.006371038
0.32731304 -0.24744126 0.88648957 -0.0030661598 0.0010490417 0.00067210197 0.003309614
0.33255878 -0.24744575 0.8864035 -0.015528232 -0.0034008883 0.0035783947 0.016294077
0.33754444 -0.24748109 0.88639468 -0.05009523 -0.013613362 0.0080079436 0.05252602
0.3423498 -0.24733521 0.88649082 -0.072257027 -0.024736263 0.0072519183 0.076717347
0.34840456 -0.24747978 0.88617837 -0.033490282 -0.029826947 0.0041200519 0.045035768
0.3524307 -0.24751513 0.88639694 -0.0060319006 -0.027056487 0.0022515059 0.027811987
0.35681903 -0.24702266 0.88694721 -0.017728882 -0.03996155 0.0023053586 0.04377846
0.36188611 -0.24876699 0.88584775 0.0078459308 -0.048096638 0.0024548471 0.048794173
0.36780939 -0.24760443 0.88598895 0.026096359 -0.067988694 0.00108248 0.072833054
0.37184399 -0.24746779 0.88610053 0.041335747 -0.069468603 0.0005466342 0.080838293
0.37843308 -0.24671817 0.88586038 0.0013319477 -0.034650669 0.00062566996 0.034681905
0.38253626 -0.2478945 0.88641602 -0.032768749 -0.021398537 -0.0028858185 0.039243042
0.38714826 -0.24767682 0.88651818 -0.058855213 0.003770832 -0.0082111359 0.059544757
0.39269534 -0.24753138 0.88716578 -0.076541297 0.011212141 -0.011531532 0.078212909
0.39715785 -0.24758036 0.88729888 -0.090093702 0.028551895 -0.013207704 0.095428132
0.40231872 -0.24740224 0.8875981 -0.078154601 0.040788502 -0.0070891082 0.088442631
0.40748081 -0.247547 0.88748372 -0.065596811 0.038953573 -0.0007019341 0.076294266
0.41283149 -0.24761365 0.88757813 -0.04122005 0.034807671 0.0038664937 0.054088965
0.4183107 -0.24743848 0.88719183 0.017589813 0.0095586032 0.001817584 0.020101544
0.42228118 -0.24755424 0.8877387 0.038582604 -0.018257901 -0.0080104172 0.043429658
0.42724347 -0.24751773 0.88753748 0.083601557 -0.071528316 -0.040694565 0.1173097
0.43277669 -0.24744667 0.88697004 0.10286058 -0.087520555 -0.062516928 0.14882377
0.43729675 -0.24694848 0.88713998 0.12864235 -0.11896951 -0.10526305 0.20440869
0.44160265 -0.24590577 0.88707167 0.12198567 -0.13400017 -0.13376844 0.22523442
0.44569525 -0.24505214 0.88607258 0.10206747 -0.13203692 -0.13829985 0.21674494
0.29813525 -0.24208307 0.88953 0.028769195 0.027789399 -0.017383099 0.04361295
0.30381382 -0.24234523 0.88851345 0.020779535 0.023467612 -0.011379868 0.033346955
0.30765745 -0.24254037 0.88785875 0.026005134 0.013519827 -0.012309849 0.031789701
0.31231934 -0.24255233 0.88741946 0.0274681 0.012038894 -0.011996418 0.03230086
0.31751326 -0.24250723 0.88718897 0.011708811 0.0033735614 -0.0042597055 0.012908225
0.32259804 -0.2426296 0.88703865 0.0027104616 0.013000237 -0.0017090738 0.013389313
0.32748622 -0.24253084 0.88653201 -0.0038986653 0.023313673 -0.0007969439 0.023650836
0.33316028 -0.2426836 0.88620591 -0.022842243 0.010593006 0.0036820471 0.025446754
0.33789837 -0.24231733 0.88603234 -0.048895657 0.019128943 0.0047802925 0.052721467
0.34251189 -0.24260375 0.88625598 -0.064915344 0.0066107288 0.0045821071 0.065411769
0.34795076 -0.2424127 0.88593012 -0.026291186 0.0094921496 0.0013790131 0.027986228
0.35282716 -0.24279 0.88630384 -0.035188522 -0.024404665 0.001327008 0.042843677
0.35737696 -0.24301235 0.88668597 -0.010505553 -0.029048467 0.00068363547 0.03089737
0.3620359 -0.24140893 0.88684011 -0.0042248517 -0.015338695 9.7692013e-05 0.015910201
0.36712781 -0.24282812 0.88621813 0.01493434 -0.034957767 0.00015476346 0.038014524
0.37215394 -0.2422599 0.88622981 0.035677873 -0.040738806 3.8832426e-05 0.054153141
0.3776246 -0.24240749 0.88606256 0.012173129 -0.043356873 -0.00046876073 0.045035802
0.38304901 -0.24206592 0.88637996 0.0027109087 -0.028952872 -0.00078967214 0.029090229
0.38745096 -0.24242017 0.88671511 -0.042576734 0.0070794309 -0.0059200525 0.043565396
0.39259544 -0.24231489 0.88701731 -0.060752701 0.020836933 -0.0088374019 0.064831845
0.39729047 -0.24251811 0.88677138 -0.075745642 0.039091367 -0.010987163 0.085943326
0.40245774 -0.24246499 0.88734341 -0.088282958 0.045481339 -0.011265337 0.099946693
0.4074958 -0.24252886 0.88757873 -0.061758511 0.044737164 -0.0010814965 0.076267272
0.41266373 -0.24260701 0.88777387 -0.056058548 0.054341953 0.0044173002 0.078199238
0.41818187 -0.2425361 0.88733745 -0.0091235992 0.042548984 0.009675771 0.04457888
0.42215186 -0.24227409 0.88760686 0.0087363664 0.021390855 0.0066847205 0.024053654
0.4273358 -0.2425528 0.88780558 0.036087736 -0.032411262 -0.014086843 0.050509937
0.43256193 -0.24259527 0.88751483 0.047459535 -0.070022672 -0.040101856 0.093614854
0.43739673 -0.2425524 0.88736749 0.07712201 -0.12595791 -0.097165138 0.17678876
0.44238538 -0.24247912 0.88769662 0.10408202 -0.12512246 -0.11948571 0.20190476
0.44703862 -0.24178232 0.88735348 -0.098222889 0.67233545 -0.70245492 0.97730523
0.45180309 -0.24069308 0.88676512 -0.098882332 0.70653939 -0.66829097 0.97754204
0.45803988 -0.24040017 0.88533044 -0.089246921 0.74857259 -0.62228143 0.97752756
0.46130699 -0.2401683 0.88538337 -0.080455959 0.7630477 -0.60722411 0.97848666
0.47469807 -0.24081393 0.88508773 0.1188284 0.72977686 -0.64692831 0.98245132
0.4780302 -0.24056275 0.88562369 0.24768296 0.6275084 -0.70858067 0.97836608
0.48221084 -0.2406521 0.88740426 0.43467307 0.41185325 -0.73479807 0.9478882
0.48570418 -0.24042325 0.88825095 0.50887203 0.28059241 -0.72328776 0.92780817
0.29872927 -0.23718961 0.8890698 0.022723809 0.026944431 -0.012463748 0.037386078
0.30414903 -0.2375347 0.88852876 0.015471041 0.011000654 -0.0072838068 0.020332765
0.30779088 -0.23752081 0.88751769 0.021081239 0.0051139016 -0.0092900693 0.02359822
0.31257725 -0.23757331 0.88754129 0.017808661 -0.002474305 -0.007124573 0.019339858
0.31730387 -0.23747221 0.88710165 0.021531075 -0.00064681412 -0.0078755915 0.022935355
0.32230723 -0.23750402 0.88704145 0.0046510845 0.0051933276 -0.0014906228 0.0071291788
0.32740197 -0.23741676 0.88656843 -0.0055095404 0.0063546263 0.0013715327 0.0085215848
0.33189324 -0.23738743 0.88628763 -0.036766969 0.0096987756 0.0067847967 0.038625244
0.33766064 -0.23738377 0.8862555 -0.032946199 0.019273251 0.0044682026 0.038430132
0.34270155 -0.23741633 0.88649476 -0.085299939 0.017126499 0.0039965212 0.087094024
0.34761864 -0.23725829 0.88633436 -0.053378634 -0.0055471277 0.0021867454 0.053710625
0.3528733 -0.23750889 0.88609928 -0.048855811 -0.0035916762 0.00037640333 0.048989102
0.35788113 -0.23753755 0.88569528 0.0030824039 0.0072836792 -4.0829182e-06 0.0079090586
0.36261591 -0.23771073 0.88687533 0.014319002 -0.0052925972 -0.00016024709 0.015266665
0.36736101 -0.2371279 0.88628501 0.012985709 0.0081921397 0.00052651763 0.015362846
0.37251261 -0.23739524 0.88593209 0.040603355 -0.0056447349 0.00094941258 0.04100484
0.37788951 -0.23770536 0.88648903 0.0080385692 -0.030499691 -0.0013116598 0.031568501
0.38271084 -0.23720208 0.8864755 0.018631473 -0.0089538991 0.0011630952 0.020704031
0.38761616 -0.23760402 0.88662601 -0.027378343 0.0059244297 -0.0036172867 0.028244598
0.39262015 -0.23755012 0.88741416 -0.047330745 0.017607156 -0.0069019794 0.050969094
0.39727789 -0.23733473 0.88699436 -0.069123976 0.034661792 -0.010150999 0.077991068
0.40265697 -0.23759101 0.8872382 -0.074185327 0.037173741 -0.0091072321 0.08347629
0.40765947 -0.2374167 0.88736558 -0.067985401 0.059741475 -0.0028209984 0.090548418
0.41260016 -0.23768149 0.88785326 -0.060165219 0.060524292 0.0036663711 0.085419469
0.41763586 -0.23755647 0.88756198 -0.039080091 0.056872204 0.010004491 0.069726549
0.42239958 -0.23732221 0.88714612 -0.025896538 0.042265728 0.010710269 0.05071225
0.42746434 -0.23753527 0.88758808 -0.015242763 0.0038765669 0.000233531 0.015729722
0.43244338 -0.23759873 0.88761741 -0.0024457108 -0.052726045 -0.02918759 0.060315277
0.43756652 -0.23764981 0.8872776 0.033001009 -0.085632429 -0.057074577 0.10807167
0.44237548 -0.23771219 0.88768452 0.074185401 -0.10741743 -0.090890408 0.15906931
0.44729519 -0.23759273 0.88784629 -0.057421606 0.67783022 -0.70481288 0.97954696
0.45298254 -0.23762578 0.88753778 -0.068546042 0.71405137 -0.66815734 0.98030716
0.45761693 -0.23683941 0.88719702 -0.092001937 0.74278259 -0.63079715 0.97882348
0.46208662 -0.23662342 0.88746989 -0.069239266 0.75217092 -0.62404168 0.97978729
0.4671433 -0.23647687 0.88729715 -0.025669768 0.75718558 -0.62574732 0.98262334
0.47252455 -0.23655212 0.88698101 0.043103691 0.73719823 -0.65434575 0.98665476
0.4779059 -0.23703247 0.88698435 0.19268887 0.64298183 -0.72114003 0.98518908
0.48202789 -0.23752163 0.88742387 0.3849456 0.46383724 -0.77612394 0.98269856
0.48685637 -0.23734626 0.88792133 0.50669742 0.26573145 -0.7811538 0.96827513
0.49156305 -0.23746687 0.8897993 0.60038114 0.10904844 -0.74873984 0.96589875
0.29908955 -0.2322544 0.88905478 0.010203019 0.0026651789 -0.0050436854 0.011689463
0.30407152 -0.23254474 0.88865507 0.020829916 -0.0075638108 -0.01046589 0.024507783
0.30744499 -0.23246291 0.88746732 0.013962686 -0.0040163416 -0.0064200759 0.015884111
0.31253368 -0.23243083 0.88750309 0.01953651 -0.0025814604 -0.0080935657 0.021303637
0.31721288 -0.23245299 0.88719481 0.016230315 -0.0043350905 -0.0061476529 0.017888816
0.32207981 -0.23255002 0.8869679 0.015394866 -0.012916259 -0.0057358444 0.020898124
0.32709241 -0.23246202 0.886953 -0.019908078 -0.015981533 0.0035952628 0.025781134
0.33145005 -0.23227482 0.88647938 -0.022285052 -0.0095777512 0.0037453175 0.024543516
0.33706418 -0.23235454 0.88639671 -0.039664019 -0.023881368 0.0032174885 0.046410199
0.34204179 -0.23256427 0.88649529 -0.077858947 3.060326e-05 0.0048516095 0.07800997
0.34725437 -0.23283695 0.88645625 -0.073610745 0.0033655204 0.0018956661 0.073712021
0.3520321 -0.23239492 0.88608462 -0.06015512 -0.0016255416 4.8488379e-05 0.060177099
0.35715586 -0.23267539 0.88603526 -0.030438617 1.9688159e-05 -0.00011059642 0.030438824
0.36287758 -0.2325463 0.88639599 0.013680119 0.0032685995 0.0002015233 0.014066628
0.36741886 -0.23216096 0.88674158 0.021791028 0.038797613 0.0018645823 0.044537403
0.37253538 -0.23236653 0.8864302 0.011393243 0.0083452128 0.0013154745 0.01418376
0.37768158 -0.2323678 0.88682503 0.0039384738 -0.0067932718 -0.00024676323 0.0078562722
0.3823269 -0.23255509 0.88666058 0.023672666 0.011294398 0.0031201541 0.026413895
0.38766479 -0.23244275 0.88679039 -0.019516699 0.0052765273 -0.0024061501 0.020360081
0.39294237 -0.23241654 0.88737482 -0.033859015 0.025428768 -0.0034849644 0.042487644
0.39739144 -0.23245543 0.88733065 -0.055400215 0.036801487 -0.007130146 0.066890746
0.40274319 -0.23260957 0.88745838 -0.05995255 0.047206473 -0.0052262247 0.076485768
0.40781322 -0.2324228 0.88726711 -0.065525524 0.072149828 -0.0021308362 0.097487092
0.41244918 -0.23272523 0.88780725 -0.065086707 0.065131374 0.0014107823 0.092088901
0.41724712 -0.23253261 0.88787103 -0.074102014 0.061987422 0.0028750002 0.096653059
0.42218035 -0.23235711 0.8871398 -0.071848541 0.038083315 -0.00068423152 0.08132048
0.42763153 -0.2324554 0.88733768 -0.060530141 0.023574933 -0.0011810064 0.064969763
0.43225828 -0.23272145 0.88790643 -0.044099927 -0.0032200664 -0.0085497499 0.045036327
0.43744922 -0.23306397 0.88789135 -0.017680198 -0.041699782 -0.028202355 0.053355731
0.44211683 -0.23335998 0.88847041 0.031910632 -0.085804433 -0.064444512 0.11195439
0.44679269 -0.23415418 0.88905787 -0.008124724 0.66625828 -0.72923756 0.98780233
0.45228022 -0.23468648 0.88971776 -0.050335247 0.71476007 -0.66975558 0.98080993
0.45829397 -0.2346403 0.88710237 -0.085375994 0.72942352 -0.64801657 0.97942495
0.46221367 -0.23383863 0.8872118 -0.063331753 0.74632215 -0.63064927 0.97914565
0.46740949 -0.23314863 0.88779837 -0.043895632 0.73714924 -0.65090775 0.98437631
0.4722558 -0.23307125 0.8875066 0.0034984518 0.71582097 -0.67897642 0.9866209
0.47785196 -0.23347922 0.8873629 0.13185875 0.64555228 -0.74193239 0.99226415
0.48204625 -0.23363048 0.88749129 0.28086925 0.48718095 -0.81935716 0.99377006
0.4862262 -0.23412868 0.88832515 0.44075912 0.25801483 -0.8531903 0.99437112
0.29957411 -0.22727375 0.88881183 0.015131325 -0.0058192052 -0.0084877312 0.018299228
0.30425778 -0.22768216 0.88919616 0.014121622 -0.01035206 -0.00794065 0.019226005
0.30729041 -0.22741017 0.88751477 0.018718392 -0.0094364136 -0.0096078813 0.02305939
0.31270424 -0.22750148 0.88760817 0.018459469 -0.0035170466 -0.0077789426 0.020337984
0.31749576 -0.2274455 0.88746583 0.01712428 -0.0046194866 -0.0066641569 0.018947074
0.32228315 -0.2273979 0.88657522 0.010637403 -0.0065905936 -0.0040741861 0.013160138
0.32718784 -0.227452 0.88672447 -0.010713704 -0.011221584 0.0011789501 0.015559477
0.33211693 -0.22774379 0.88648564 -0.045716677 -0.035843886 0.0022117496 0.058135103
0.33717218 -0.22758247 0.8864013 -0.048459679 -0.020980064 0.0030918717 0.052896723
0.34231955 -0.22767462 0.88618153 -0.050807416 -0.024996936 0.00049555302 0.056625839
0.34706703 -0.22836345 0.88603026 -0.056589596 0.0095159486 0.0033316314 0.057480738
0.35201535 -0.22721717 0.8865906 -0.059979316 0.003207095 0.0007994771 0.060070317
0.35692239 -0.22694254 0.88617557 -0.021861946 0.025658842 0.002925247 0.033836044
0.36253503 -0.22755907 0.88641429 -0.0071331789 0.0066980124 0.00064769387 0.0098063815
0.36746103 -0.22767034 0.88665974 -0.0003510993 -0.0036041364 -0.00047332048 0.0036519999
0.37282529 -0.2282159 0.88687271 0.018456955 -0.012863252 -0.00059658289 0.022505075
0.37743688 -0.22802176 0.88670635 0.013633542 -0.00096407533 0.0011225343 0.013713606
0.38245684 -0.22795126 0.88677424 0.031757727 0.0011936426 0.0031974912 0.031940602
0.38757446 -0.22729674 0.88697159 -0.0076951757 0.0037593171 -0.00063207746 0.0085876491
0.39266178 -0.22748537 0.88698512 -0.019844607 0.0080213249 -0.0024270713 0.021541605
0.39757684 -0.22754116 0.88739675 -0.035078697 0.026153803 -0.0032418966 0.043875352
0.40281725 -0.22757736 0.88757122 -0.037728511 0.041621543 -0.00062939525 0.056179974
0.40775651 -0.22756821 0.88731623 -0.059262052 0.060791567 -0.0022356808 0.084927045
0.41228166 -0.22742218 0.88731456 -0.056746699 0.065071359 0.0017437637 0.086356878
0.41685507 -0.2277188 0.88793296 -0.080676183 0.055061914 -0.0038537383 0.097751275
0.42204005 -0.22750969 0.88734454 -0.07704705 0.039872006 -0.003898263 0.086840205
0.42765108 -0.2277486 0.887968 -0.070666492 0.048728302 0.0033639669 0.085904114
0.43201426 -0.22804853 0.88890892 -0.058073677 0.03756246 0.0046918988 0.069321744
0.43702182 -0.22931656 0.88923883 -0.051299766 -0.0018588006 -0.010868996 0.052471478
0.46319085 -0.22977126 0.8898682 -0.074046358 0.72886014 -0.6444239 0.97570598
0.46771416 -0.22897069 0.88978082 -0.082065172 0.7206099 -0.65771997 0.97908574
0.47289985 -0.22649801 0.88913822 0.076477379 -0.085794568 -0.085278928 0.14311531
0.47822896 -0.22590928 0.88919067 0.0022754008 0.050621554 0.030351192 0.05906703
0.48136169 -0.22546384 0.88936299 -0.13859148 0.16638702 0.046295881 0.22143972
0.29966584 -0.2227778 0.88924247 -0.0003670007 -0.0046588555 -0.00062173605 0.0047144648
0.30444661 -0.22209473 0.88924557 0.012978896 -0.0058224872 -0.0072513819 0.015966704
0.30730024 -0.222571 0.88731337 0.025355384 -0.016066208 -0.014671892 0.033410821
0.3124752 -0.22259583 0.88742435 0.028897524 -0.012039974 -0.014219731 0.03438355
0.31730139 -0.22255182 0.88772821 0.021750897 -0.014640689 -0.010688663 0.028314285
0.32248673 -0.22241718 0.88722974 0.0053405315 -0.025040843 -0.0066907704 0.026463777
0.32746407 -0.22246145 0.88694656 -0.00081948936 -0.031174757 -0.0063602924 0.031827509
0.3325766 -0.22224908 0.88656253 -0.018898457 -0.013392799 0.00091382861 0.023180893
0.33741549 -0.2223603 0.88650113 -0.047156084 -0.017647959 0.0021901727 0.050397854
0.34157401 -0.22233783 0.88637203 -0.029689368 -0.020455807 -0.00094670057 0.036066536
0.34769875 -0.22217447 0.88651687 -0.039335143 -0.017047822 -0.0014513433 0.042895082
0.35238746 -0.22239769 0.88639385 -0.024980091 -0.018211514 -0.0027776361 0.031038353
0.3571144 -0.2227964 0.88612616 -0.0058307345 -0.012176566 -0.0021552444 0.01367155
0.36241758 -0.22260085 0.88625824 -0.014742282 0.0016304031 -6.2584877e-05 0.014832296
0.36760822 -0.22288799 0.88621008 0.039970085 0.0021693856 0.0007417798 0.040035788
0.37277317 -0.22210249 0.88623738 0.019310487 0.015765823 0.0038425326 0.025223425
0.37788638 -0.22234948 0.8867076 0.015165091 0.0081073865 0.0029209852 0.01744253
0.38240144 -0.22250164 0.88639909 0.015025008 0.02436512 0.0057611763 0.029199334
0.3877593 -0.22254202 0.88725114 -0.012622252 -0.0023686811 -0.0026550591 0.013114162
0.39290249 -0.22248118 0.88730949 -0.014471062 0.003681086 -0.0021404028 0.01508454
0.39768246 -0.22234772 0.88738734 -0.021340929 0.024835788 0.00027570128 0.032746412
0.40283811 -0.22260799 0.88770658 -0.025944918 0.031199172 0.00075379014 0.040584423
0.40767136 -0.22247283 0.88757473 -0.042834505 0.044705704 -0.00038132071 0.061915591
0.41242614 -0.22236182 0.88717937 -0.058910184 0.052569479 -0.0022629201 0.078987852
0.41656363 -0.2227751 0.88763666 -0.069189735 0.046303213 -0.0054941475 0.083434962
0.42185929 -0.22255006 0.88775873 -0.069656931 0.05645366 0.0011882484 0.089668922
0.42755523 -0.22256811 0.88872582 -0.076905385 0.066491112 0.0054572821 0.10181006
0.43101591 -0.22280434 0.88954365 -0.071759306 0.054722309 0.0054330528 0.090407118
0.47330442 -0.22427054 0.88955975 0.13042377 -0.035325348 -0.051299751 0.1445334
0.47833928 -0.22317119 0.88898253 -0.026727177 0.10866958 0.056790262 0.12549324
0.48225614 -0.22212422 0.88910723 -0.1788312 0.22194439 0.047916979 0.28902587
0.48615986 -0.22125772 0.88932812 -0.1858027 0.24732818 0.033886552 0.31119475
0.29966369 -0.21891558 0.8897649 0.00033715367 0.0093446001 0.0016957521 0.0095031997
0.30431852 -0.21874139 0.88960886 0.0015019476 -0.0053578168 -0.0018556714 0.0058656256
0.30761984 -0.21760391 0.88773179 0.016092777 -0.0069790632 -0.0088236332 0.019635206
0.31264275 -0.21751681 0.88724881 0.025917813 -0.018148437 -0.015111566 0.035063632
0.31708789 -0.21745467 0.8874526 0.017349362 -0.013332352 -0.0094465315 0.023832519
0.32245642 -0.21751355 0.88749439 -0.0033153743 -0.022663407 -0.0049441159 0.023432158
0.32756913 -0.21742868 0.8874529 0.0027818233 -0.0296451 -0.0087756813 0.031041635
0.33271086 -0.21734019 0.88722324 -0.018242203 -0.029450886 -0.0044641495 0.034929376
0.33751869 -0.2174706 0.88723212 -0.044691496 -0.0037070289 0.0046613216 0.045086581
0.34240049 -0.21715683 0.88715017 -0.020929724 0.0048849806 0.0034922659 0.021774119
0.34748369 -0.21734183 0.8872264 -0.034762502 0.0036424249 0.0029028654 0.035073142
0.35230047 -0.21734114 0.88713986 -0.021624789 -0.00024196506 0.00080421567 0.021641091
0.35743392 -0.2174087 0.88731652 0.011893698 0.0068492293 0.001115948 0.013770161
0.36254165 -0.21737745 0.8872906 0.0067938343 0.0054993778 0.0012909472 0.0088354899
0.36720383 -0.21738563 0.88697785 0.023300305 0.015947185 0.0039568245 0.028510934
0.37257761 -0.21744192 0.88700825 0.019469151 -0.0078930184 -0.00067850947 0.021019228
0.37798131 -0.21719399 0.886976 0.016760726 -0.0057105199 0.00027796626 0.017709015
0.3822304 -0.21718892 0.88752067 -0.003052935 0.0080410764 0.0014518201 0.0087227924
0.38762927 -0.2174466 0.88756925 -0.018981531 -0.0076102018 -0.0055446923 0.021188613
0.39274192 -0.21756686 0.88754457 -0.016646542 -0.0062389225 -0.00522089 0.018528065
0.39769021 -0.21738614 0.88725436 -0.016370766 0.011609741 -0.00090497732 0.020089973
0.40282828 -0.21780638 0.88773 -0.017855644 0.0071795732 -0.0026882291 0.019431852
0.40760857 -0.21749581 0.88783383 -0.028172128 0.03843163 0.0026938021 0.04772751
0.41238207 -0.21740991 0.88720381 -0.057015508 0.04694102 -0.0038332939 0.073952161
0.4165372 -0.21757792 0.88726354 -0.057738446 0.04956235 -0.0020295382 0.076120123
0.4217442 -0.21774876 0.88808346 -0.068992615 0.056577548 -0.0015917718 0.089238629
0.42742115 -0.2179856 0.88926107 -0.079535894 0.083581254 0.0076193511 0.11562802
0.47964743 -0.21912286 0.88931364 -0.12840456 0.25534427 0.07730335 0.29608145
0.48289591 -0.21762891 0.8887471 -0.16613148 0.27041057 0.069238931 0.3248316
0.48684651 -0.21708931 0.8890993 -0.22628313 0.28415188 0.03514877 0.36494079
0.49081251 -0.21623601 0.88989824 -0.27784491 0.27118865 -0.0061526597 0.38830262
0.30784166 -0.21271822 0.88816279 0.0078163147 -0.0007025972 -0.0035376549 0.0086083338
0.31280869 -0.21248604 0.8875193 0.010430679 0.00037159026 -0.0038761795 0.011133818
0.31731215 -0.21256708 0.88760352 0.015984073 0.00062845647 -0.0054468811 0.016898345
0.32245818 -0.21251078 0.88763684 0.0066651106 0.0046307594 -0.00064712763 0.0081416462
0.32745072 -0.21255644 0.88748544 0.0036540702 0.00091403723 -0.00066190958 0.0038243714
0.33221668 -0.21243288 0.88714248 -0.0049816668 -0.0058053434 -0.00071400404 0.007683021
0.33737561 -0.21251673 0.88726717 -0.020357676 0.0035074204 0.0040667653 0.02105411
0.34254697 -0.21248969 0.88743579 -0.021632671 0.010690406 0.0053161085 0.024708668
0.34774721 -0.21247801 0.88682222 -0.017991995 -0.0063379258 -0.00050553679 0.019082367
0.3526037 -0.21242107 0.88716471 -0.01009994 0.0054545403 0.0020153522 0.011654289
0.3576659 -0.21251521 0.88710755 0.013303357 0.00076310337 -0.00030857325 0.013328798
0.3626574 -0.21244353 0.88747233 -0.003870992 0.028972678 0.0074193478 0.030157045
0.36737195 -0.21234219 0.88732141 0.0028996598 0.027712867 0.0073942244 0.028828556
0.37253711 -0.21239232 0.8871699 0.0024827011 0.0057160109 0.0018029511 0.0064874664
0.37779722 -0.21237744 0.88712674 -0.0015423819 -0.0090637803 -0.0028937757 0.0096387239
0.38220984 -0.21255083 0.88748187 0.005296804 -0.014529839 -0.0037074387 0.01590338
0.38759029 -0.21249869 0.88761181 -0.010281391 0.0085604042 0.00054049492 0.013389536
0.39262584 -0.21261901 0.88763332 -0.02280838 0.0094115436 -0.0025111437 0.024801314
0.39757547 -0.21244001 0.88734639 -0.013109416 0.014453813 0.0010360479 0.019540802
0.40288201 -0.2125009 0.88735306 -0.015847787 0.019876465 0.0015725493 0.025469573
0.40743721 -0.21256082 0.8876754 -0.023712799 0.021241888 -0.0004979074 0.031839639
0.41224366 -0.21242982 0.88746202 -0.039884105 0.038074091 -0.00067666173 0.055143777
0.41656125 -0.21268892 0.88787955 -0.05508098 0.048213318 -0.0026576221 0.073249578
0.42130286 -0.21330073 0.88875455 -0.051341355 0.085991673 0.011568189 0.10081828
0.42731187 -0.21316083 0.88960236 -0.076657146 0.064914569 -0.001752913 0.10046538
0.48351824 -0.21298952 0.88901043 -0.22227009 0.30945352 0.052401155 0.38459244
0.48743719 -0.21237837 0.88888597 -0.28028873 0.28126681 0.024604321 0.3978419
0.49117857 -0.2112705 0.88984478 -0.32082784 0.2299155 -0.0042607784 0.3947275
0.30829513 -0.20810518 0.88883477 0.010518566 0.012386113 -0.00035718083 0.016253727
0.31287095 -0.20758682 0.88824826 -0.00099937618 -0.0015978664 -0.00018253922 0.0018934758
0.3177188 -0.20745498 0.88734806 0.023777813 0.00080046058 -0.0081303418 0.025142148
0.32269821 -0.20744103 0.88751227 0.0087827891 -0.0016503334 -0.0031846464 0.0094869891
0.32764846 -0.20746641 0.88765407 -0.0082726851 -0.0046299696 0.0003284514 0.0094858743
0.33220017 -0.20757529 0.88753957 -0.003641054 -0.0021370798 1.3202429e-05 0.0042219143
0.33724019 -0.20757705 0.88747287 -0.019787934 0.0026115924 0.0039125979 0.0203394
0.34240744 -0.20743871 0.88751864 -0.01681722 0.0025022179 0.0028036237 0.017231956
0.34720123 -0.20736951 0.88727844 -0.013515994 0.01109992 0.0048760176 0.018156702
0.35262835 -0.2074648 0.88727152 -0.0048056431 0.031430751 0.0099501312 0.033316534
0.35766041 -0.2074423 0.88726085 -0.0084271096 0.017092794 0.0056793392 0.01988554
0.36260489 -0.20742169 0.88748235 0.011190182 0.018235594 0.0059030056 0.02219465
0.36761168 -0.20740581 0.88756526 -0.0015415885 -0.0052461922 -0.0019148886 0.0057936022
0.37271762 -0.20750304 0.88762265 -0.012238536 -0.0019548982 -0.0018533468 0.012531491
0.37766793 -0.20751359 0.88729995 0.0028786808 -0.019889951 -0.0068858564 0.021244105
0.38241655 -0.20750867 0.88733482 0.02207322 -0.011026353 -0.0011014044 0.024698595
0.3876819 -0.20750581 0.88763243 0.012918778 -0.0055977255 0.00020867586 0.014080941
0.3927421 -0.20755355 0.88777626 -0.001023151 0.0079036802 0.0024670362 0.0083427373
0.3974759 -0.20759329 0.88754743 -0.0088152736 0.014273807 0.0026049912 0.016977532
0.40295991 -0.20744705 0.88700473 -0.012617894 0.014193669 0.0013470352 0.019039065
0.40747219 -0.20771147 0.88753158 -0.032699183 0.025076836 -0.0021403134 0.041263364
0.41207376 -0.20764899 0.88814962 -0.022043288 0.024469331 0.0014692843 0.032966856
0.41668174 -0.20792054 0.88875443 -0.0293753 0.035217285 0.0027389228 0.045941997
0.42141595 -0.20868044 0.88931197 -0.043962672 0.049621254 0.0029864609 0.066361919
0.48435396 -0.20844765 0.88950706 -0.24080023 0.22495331 0.049163163 0.33317527
0.48710406 -0.2074638 0.88882571 -0.30379286 0.19031933 0.022295296 0.35917771
0.49151582 -0.20742895 0.88955569 -0.33620778 0.1671488 -0.0041455925 0.37548846
0.30885988 -0.20367073 0.88905144 0.0037510395 0.0086620003 0.0017618239 0.0096023213
0.31336421 -0.20283657 0.88871789 -0.0030073375 0.0093791634 0.0046965182 0.010911923
0.31778207 -0.20277041 0.88817149 0.01757507 0.0030505508 -0.004871279 0.018491033
0.3227444 -0.20260583 0.88786995 0.0043812096 0.00035721064 -0.0011455417 0.0045425612
0.32769623 -0.20252369 0.8874312 0.0064284876 0.0009688139 -0.0012560189 0.0066213016
0.33236432 -0.20242134 0.88749772 -0.0001154393 0.0044967234 0.0018083751 0.0048480993
0.33763048 -0.20255019 0.88755894 -0.006819278 0.013650388 0.0063288212 0.016519371
0.3428162 -0.20241451 0.88775337 -0.0090687089 0.02473262 0.010361135 0.02830719
0.34738466 -0.2025592 0.88736904 0.0067540519 0.035162061 0.011860728 0.037718225
0.35284954 -0.20266011 0.88747162 -0.0036071166 0.023746625 0.0089555979 0.025634278
0.35788608 -0.20245282 0.88752246 0.0042517912 0.030583456 0.01098153 0.032772239
0.3628417 -0.20251763 0.88757575 -0.0030227513 0.017702579 0.0066393316 0.019146778
0.36765423 -0.20259269 0.88769484 -0.019408321 0.016282335 0.0049052835 0.025804246
0.37264118 -0.20250574 0.88765353 -0.010092068 0.013566509 0.0042688251 0.01743912
0.37757018 -0.2025336 0.88756084 -0.0053464919 0.0051211119 0.0013617277 0.0075276201
0.38242713 -0.20249294 0.88724214 0.015261672 -0.0041763186 0.00035274029 0.01582671
0.38786039 -0.2024342 0.88741225 0.012202248 -0.012066573 -0.0028119981 0.017389778
0.39260134 -0.20262183 0.88775134 0.0034159496 0.0025800318 0.0017653704 0.0046305298
0.39756683 -0.20238914 0.88746327 0.0034535378 0.013355076 0.0060729682 0.015072024
0.40262127 -0.20247178 0.88742948 -0.00848414 0.011524543 0.0021189153 0.014466704
0.40725005 -0.20281444 0.88804162 -0.026592344 0.018462867 -0.0017139018 0.032418631
0.41180888 -0.20271836 0.88899189 -0.0080259293 0.011908993 0.0022269487 0.014532686
0.41674304 -0.20341186 0.88932234 -0.029807508 0.017919183 -0.0041535199 0.035026222
0.48712102 -0.20320259 0.88905644 -0.25224409 0.074855417 0.022358239 0.26406497
0.49185112 -0.20358977 0.88927442 -0.33996296 0.090838186 -0.021692425 0.35255772
0.31388858 -0.1987685 0.88921881 -0.0059528649 -0.00024601817 0.0020111203 0.0062882216
0.31817037 -0.19798686 0.88902235 -0.0019392371 0.00093258917 0.0010498762 0.0023942855
