# .PCD v0.7 - Point Cloud Data file format
VERSION 0.7
FIELDS x y z normal_x normal_y normal_z curvature
SIZE 4 4 4 4 4 4 4
TYPE F F F F F F F
COUNT 1 1 1 1 1 1 1
WIDTH 553
HEIGHT 1
VIEWPOINT 0 0 0 1 0 0 0
POINTS 553
DATA ascii
-0.068462923 -0.13902225 1.0771309 -0.26834923 -0.034351133 0.85753095 0.89919442
-0.059033591 -0.13420618 1.077607 0.24846655 0.093754426 0.09103176 0.28073528
-0.063201465 -0.14910032 1.0825431 -0.28771394 0.24544761 0.74592316 0.83631641
-0.057254534 -0.14981952 1.0831686 -0.34895888 0.2867296 0.7399146 0.86686778
-0.067971587 -0.14516652 1.0818124 -0.26793227 0.12252565 0.8174603 0.86893129
-0.063182808 -0.14538312 1.0816809 -0.31643453 0.13004398 0.82155126 0.88993746
-0.058014113 -0.14553916 1.0818322 -0.34720606 0.14630145 0.82066393 0.90302014
-0.05273274 -0.14457424 1.0825495 0.25008336 0.19942221 0.082160503 0.33024424
-0.04525109 -0.14596479 1.0831039 0.086607754 0.21837744 -0.0079728365 0.23505993
-0.043454044 -0.14336136 1.0830246 0.027115107 0.16644084 -0.023474813 0.17026113
-0.078020811 -0.13829446 1.0822405 0.21911508 0.10173603 0.0595043 0.24880193
-0.073516607 -0.13891648 1.0809699 0.27524599 0.17234954 0.080837607 0.33466318
-0.068694681 -0.14005797 1.0807321 0.3022812 0.19994634 0.089741766 0.37337121
-0.063200355 -0.1404523 1.0811155 0.29194856 0.17326424 0.10296088 0.35476103
-0.057571501 -0.14033607 1.0813085 0.29001942 0.13685417 0.10676554 0.33799291
-0.052437533 -0.14013864 1.0816764 0.21468022 0.10921203 0.08603853 0.25576845
-0.04712465 -0.14010701 1.0821472 0.13123193 0.090134241 0.05739522 0.1692342
-0.042204 -0.13956036 1.0825305 0.027801484 0.083645225 0.0053690672 0.088307835
-0.08926829 -0.13202007 1.0834862 0.17417535 0.053504936 -0.019777447 0.18327843
-0.08461161 -0.13396089 1.0821018 0.18126915 0.092985936 0.0053260624 0.2037971
-0.079622395 -0.13434404 1.0813782 0.21394297 0.12558395 0.030564845 0.24995427
-0.07423158 -0.13495661 1.0810003 0.21371958 0.11916488 0.050476223 0.24984831
-0.068889774 -0.1351981 1.0810835 0.21111329 0.10278891 0.064030349 0.24338092
-0.06314788 -0.13445297 1.0808841 0.22260916 0.0820366 0.068876833 0.2470402
-0.058116473 -0.13479647 1.0808394 0.24329463 0.061470281 0.072840214 0.26129785
-0.052802879 -0.13504447 1.0820092 0.19559543 0.057101734 0.072934717 0.21642008
-0.046421267 -0.13458802 1.0825169 0.09200865 0.028955922 0.04594326 0.10684016
-0.042931918 -0.13514026 1.0827643 0.040071741 0.019254584 0.022420704 0.049791276
-0.088550769 -0.12797101 1.0828229 0.1167317 0.0080633163 -0.0095891654 0.11740212
-0.084620193 -0.12935403 1.0820148 0.14708717 0.045311376 -0.0023500025 0.15392622
-0.079387166 -0.1296242 1.0815818 0.15258513 0.063029289 0.015170485 0.16578618
-0.074438162 -0.12921152 1.0812552 0.13597953 0.031582695 0.018735677 0.14085072
-0.068722904 -0.12899469 1.0813855 0.13249049 0.036037859 0.026260495 0.13979295
-0.063417241 -0.12930417 1.0810874 0.17022935 0.035663255 0.038865864 0.17821462
-0.057706498 -0.12967063 1.0815468 0.19486591 0.028005702 0.050569206 0.20325916
-0.052675921 -0.12940046 1.0821134 0.16511595 -0.0076176263 0.051661551 0.17317685
-0.046585783 -0.12882747 1.0826805 0.078364447 -0.055380985 0.031237215 0.10091484
-0.042740744 -0.12994243 1.0828824 0.028037637 -0.043122262 0.014330626 0.053394806
-0.090042189 -0.12453739 1.0827342 0.12811682 0.025564454 -0.01464048 0.13146026
-0.084893145 -0.12334175 1.0823085 0.10286148 -0.00082759932 -0.0038354695 0.10293629
-0.079893656 -0.1242458 1.0821115 0.10762782 -0.030876383 -0.0022860765 0.11199252
-0.073869839 -0.12437508 1.0820625 0.091316082 -0.015857063 0.0053676963 0.092837952
-0.06827224 -0.12356911 1.0819932 0.077698477 -0.036519878 0.003198266 0.085912652
-0.063480988 -0.12450615 1.0817412 0.10908761 -0.022063531 0.012927979 0.1120448
-0.058457073 -0.12388518 1.0818062 0.13286901 -0.047170561 0.019613862 0.14235146
-0.052110087 -0.12385211 1.0829885 0.111666 -0.052422062 0.029762268 0.12689823
-0.047341328 -0.12460645 1.0828347 0.073417351 -0.084528744 0.020570338 0.11383477
-0.041915663 -0.12229179 1.0829512 0.029779926 -0.088536739 -0.0011388063 0.093417853
-0.089098975 -0.11905593 1.0828695 0.096745223 0.025055673 -0.0054241717 0.1000842
-0.085065514 -0.11861516 1.082974 0.085322142 0.0078876093 -0.0017838478 0.08570452
-0.080005646 -0.1188352 1.0825706 0.090927809 -0.02509129 -0.002186954 0.09435159
-0.074059635 -0.11801751 1.0821959 0.068056919 -0.031350609 0.00087463856 0.074935772
-0.069641531 -0.11792499 1.0821476 0.060870174 -0.041625939 -0.00030213594 0.073742718
-0.063036814 -0.11870464 1.0825665 0.080226481 -0.03443839 0.0054403543 0.087475076
-0.058253612 -0.11856075 1.0827023 0.097509354 -0.043413412 0.012161225 0.10742762
-0.052657828 -0.11841647 1.0829473 0.097746715 -0.048644863 0.021519393 0.11128265
-0.047712866 -0.11781913 1.0831068 0.062847555 -0.044676982 0.018058717 0.079195738
-0.089517549 -0.11525258 1.0834879 0.075247675 0.033507254 -0.0019426644 0.082393706
-0.084553406 -0.11338243 1.0828414 0.063767552 0.017615616 0.00070738792 0.06615974
-0.079355821 -0.11373051 1.0831257 0.076592319 -0.0097652748 0.00073215365 0.077215798
-0.075945295 -0.1140335 1.0821768 0.078269579 0.0025414377 0.0035623014 0.078391805
-0.06886252 -0.11436535 1.0828847 0.078207366 -0.0030095503 0.0062990189 0.078518324
-0.061923929 -0.11278358 1.0830976 0.087218463 0.00033523142 0.013854414 0.088312611
-0.060210504 -0.11009769 1.0830976 0.081808843 0.0022643507 0.01728189 0.083644949
-0.086249813 -0.10966086 1.083328 0.061909433 0.012434185 -0.001519531 0.06316404
-0.059210621 -0.10946221 1.0833142 0.087702118 0.0010263473 0.018366396 0.089610487
-0.063918054 -0.15430796 1.0878624 -0.26970997 0.33892104 0.67757678 0.8041898
-0.057629716 -0.15492199 1.0879581 0.34881631 0.40829384 -0.047213912 0.53907871
-0.051268976 -0.15512457 1.0879964 0.22023487 0.39302552 -0.085338801 0.45853588
-0.049095321 -0.15449826 1.0886121 0.1443522 0.37999117 -0.11629644 0.42279512
-0.067589112 -0.14993712 1.0861574 -0.21572208 0.26857468 0.72459579 0.8023138
-0.063274622 -0.15087819 1.0864103 -0.28660259 0.28895879 0.73672283 0.84166425
-0.057801504 -0.15129763 1.086591 0.33525109 0.35082737 0.0068299174 0.48530382
-0.0525341 -0.1510058 1.0866857 0.24323347 0.3356213 -0.015500844 0.41478243
-0.047226284 -0.15027249 1.0873944 0.0971715 0.32176232 -0.089376062 0.34779501
-0.043809529 -0.14865932 1.0875022 0.00033429265 0.26470727 -0.11771479 0.28970125
-0.071591914 -0.14478299 1.0885326 0.37977293 0.28350505 0.00049781799 0.47392282
-0.068410076 -0.14571916 1.0867803 0.4171032 0.28937197 0.025955588 0.50831574
-0.063296951 -0.14577663 1.0862063 0.32557806 0.26798248 0.051491469 0.42481416
-0.057940319 -0.14534207 1.085971 0.29001334 0.23212351 0.056891054 0.37580004
-0.052364048 -0.14581151 1.0863116 0.18855409 0.22977787 0.027745366 0.29853028
-0.046791401 -0.145836 1.0863148 0.067031503 0.22027034 -0.02966994 0.23214768
-0.042133294 -0.14523122 1.0867738 -0.028930098 0.19866109 -0.090415925 0.2201777
-0.037590817 -0.14478777 1.088887 -0.13152212 0.19535874 -0.21198604 0.31686145
-0.077765517 -0.13790578 1.0849502 0.16993704 0.051592611 0.037941724 0.18160389
-0.073001124 -0.1394316 1.0860583 0.22326015 0.12944292 0.042564392 0.26155743
-0.068653502 -0.14044662 1.0860572 0.26735306 0.14546697 0.05457145 0.30921891
-0.063303925 -0.14030008 1.0864094 0.24805076 0.13232014 0.062164038 0.28792736
-0.057751179 -0.14021485 1.0861279 0.22401577 0.11359727 0.066479176 0.25982088
-0.05225743 -0.14051396 1.0862405 0.14773419 0.12264909 0.047042489 0.19768962
-0.046839401 -0.13987923 1.0860436 0.058663279 0.10493209 0.018106103 0.12157284
-0.041498415 -0.14000162 1.0863056 -0.032644838 0.11974069 -0.048561424 0.13327314
-0.037740938 -0.14002921 1.0877228 -0.14238131 0.11705229 -0.16862658 0.24981713
-0.088912018 -0.13308981 1.0874214 -0.059208121 -0.24019817 -0.059497654 0.25444201
-0.0852006 -0.13350031 1.0855877 0.071993366 -0.078158721 -0.0077398717 0.10654452
-0.079581372 -0.13439985 1.0863429 0.098754697 -0.001190979 0.011443198 0.099422604
-0.074249454 -0.13491923 1.0860845 0.14539519 0.02277616 0.025755227 0.14940497
-0.068803504 -0.13444246 1.0861768 0.13509677 0.014457585 0.03266269 0.13973908
-0.063139766 -0.13479163 1.0864322 0.1820617 0.027309746 0.04589498 0.18973306
-0.05760603 -0.13503724 1.0863103 0.1884349 0.020558901 0.055831432 0.19760448
-0.052191734 -0.13472803 1.0863127 0.13385297 0.022699509 0.053583413 0.14595571
-0.046719093 -0.13498329 1.0864137 0.059779868 0.038576871 0.028124124 0.076503426
-0.041347872 -0.13485922 1.0863137 -0.043637693 0.02259958 -0.031356633 0.058294319
-0.037039965 -0.13400182 1.0873475 0.63958514 -0.075641051 -0.74518621 0.98493314
-0.094309196 -0.12716779 1.0876415 0.10971092 0.0074870512 -0.017447114 0.11134157
-0.09030062 -0.1291887 1.086549 0.058763217 -0.074307084 -0.010959327 0.095366478
-0.085180871 -0.12942266 1.086378 0.07898137 -0.043854319 -0.0040079057 0.090428546
-0.079726353 -0.12907919 1.0860575 0.090002134 -0.01956406 0.0043445826 0.092206359
-0.074479997 -0.1289362 1.0860728 0.092099845 -0.028816121 0.0078803003 0.096823804
-0.068613805 -0.12963715 1.0866189 0.11429779 -0.0139184 0.01710397 0.11640555
-0.063157447 -0.12929961 1.0859742 0.15589817 -0.0087598246 0.027578562 0.15856087
-0.057861812 -0.12908293 1.0862589 0.15461506 -0.025154728 0.038657457 0.16134737
-0.052234184 -0.12917772 1.086223 0.13347493 -0.052505396 0.041251868 0.14924507
-0.04665618 -0.12951829 1.0860364 0.060576364 -0.061301406 0.024982184 0.089729972
-0.041225486 -0.12926959 1.0866033 -0.035493851 -0.053615481 -0.024787724 0.068912007
-0.036818892 -0.12946671 1.0865965 0.62444395 0.0068207355 -0.76982361 0.99126446
-0.094671942 -0.12399057 1.0871559 0.10864426 0.02128638 -0.016749591 0.11196979
-0.090654641 -0.12335983 1.0863088 0.083137065 -0.016292412 -0.008551538 0.085148945
-0.085359327 -0.12366737 1.0861671 0.06224744 -0.055672336 -0.0072164834 0.083822615
-0.079855584 -0.12410336 1.0862939 0.071635514 -0.06581036 -0.0038749278 0.097353302
-0.074221812 -0.12367824 1.0864199 0.075570181 -0.062391151 -0.0008469522 0.098001145
-0.068873905 -0.12382227 1.0860397 0.064039722 -0.0656607 0.0031538308 0.091773413
-0.063245289 -0.12341218 1.0861036 0.12061127 -0.039767921 0.016735494 0.12809622
-0.057668101 -0.12378951 1.0864527 0.13116865 -0.040952735 0.027999938 0.14023672
-0.052262861 -0.12393458 1.0862947 0.11773163 -0.046505198 0.034636468 0.13123702
-0.046792764 -0.12348232 1.0863093 0.059539631 -0.070229657 0.018293202 0.093871258
-0.041208521 -0.12374561 1.0865225 -0.00431481 -0.076092891 -0.014917076 0.077661216
-0.037307333 -0.12436607 1.0874125 0.62936413 0.11122909 -0.75781029 0.99133623
-0.099774346 -0.11648615 1.0883093 0.10573678 0.097179778 -0.017179906 0.14463516
-0.0957122 -0.11793163 1.0865545 0.070854269 0.045038331 -0.0056229532 0.084145091
-0.09049125 -0.11845598 1.0866265 0.05022553 0.014445364 -0.0018021464 0.052292638
-0.084955573 -0.11841398 1.0861435 0.058999483 -0.0089822449 -0.0020819604 0.05971561
-0.079668343 -0.11804429 1.0862297 0.084470503 -0.028555427 -0.00093123317 0.089171439
-0.074203968 -0.11837124 1.0863868 0.060399748 -0.044112667 -1.8596649e-05 0.074793428
-0.068474725 -0.11837808 1.0862671 0.090870894 -0.035731886 0.0038958192 0.097721361
-0.063222334 -0.11837392 1.086428 0.12958907 -0.012625374 0.019271344 0.13162109
-0.057924088 -0.11819627 1.0860621 0.13729855 -0.028404504 0.028526843 0.14307861
-0.052259829 -0.11799153 1.0861509 0.094599195 -0.048761263 0.024890661 0.10929874
-0.046667002 -0.1184241 1.0864749 0.063643992 -0.069953263 0.014344364 0.095654465
-0.041501787 -0.11905979 1.0867043 0.52860785 0.21554454 -0.81719303 0.99684006
-0.037648354 -0.11934559 1.0881675 0.62413931 0.20431939 -0.74167633 0.9906463
-0.10068291 -0.11299159 1.0879581 0.095203727 0.093838148 -0.012146384 0.13422698
-0.096189417 -0.1124963 1.0870097 0.061476789 0.069728181 0.00041505694 0.092960142
-0.090844579 -0.11248131 1.0860534 0.05317191 0.049860049 0.0024442077 0.072933197
-0.08531031 -0.11293971 1.0864789 0.046554998 0.022514753 0.0019676387 0.05175088
-0.079779223 -0.1126923 1.0863194 0.058953643 0.010902151 0.0030005872 0.060028262
-0.07423231 -0.11309289 1.0861979 0.086543187 0.0037668124 0.0068950951 0.086899102
-0.068788514 -0.1126289 1.0865116 0.092729121 0.02384866 0.016836494 0.097215824
-0.063351415 -0.11262628 1.0859635 0.1221634 0.030143939 0.025994897 0.12848459
-0.057790622 -0.11303125 1.0866116 0.1067239 -0.00225842 0.029352307 0.11070975
-0.051995557 -0.11286679 1.0865669 0.084824234 -0.02563256 0.024396509 0.091909565
-0.047264941 -0.1128298 1.0868319 0.043569222 -0.052120149 0.0043854415 0.06807363
-0.042899106 -0.11364421 1.0882341 0.52763069 0.28223008 -0.79776728 0.99723649
-0.099779144 -0.10813566 1.0879672 0.074565813 0.076345637 -0.0030488372 0.10676147
-0.096004218 -0.10746096 1.0871284 0.046116643 0.051540367 0.0039127469 0.069270946
-0.090680175 -0.1072365 1.0864214 0.044715621 0.05281058 0.0062789023 0.069482863
-0.085260786 -0.10724281 1.0863693 0.037710126 0.039937511 0.0061860383 0.055275001
-0.079882637 -0.10720173 1.0863065 0.063820675 0.031778879 0.0079250336 0.071734108
-0.074233457 -0.10733899 1.0865781 0.092320688 0.031930685 0.015654653 0.098933034
-0.068760455 -0.10730897 1.0866054 0.092950054 0.026264049 0.021331757 0.098916918
-0.063327506 -0.1076901 1.0864575 0.10874784 0.024407879 0.02864477 0.11507545
-0.057687823 -0.10703408 1.086692 0.060730144 0.011917189 0.023547292 0.066216648
-0.052729856 -0.10747921 1.0873923 0.05161126 -0.0026606023 0.020271063 0.055513214
-0.048518326 -0.108583 1.0882003 0.0063836724 -0.029710338 -0.0087206364 0.031614948
-0.099080868 -0.10391068 1.0875353 0.054973602 0.064162545 0.0044589043 0.084609762
-0.095567755 -0.10223176 1.0875483 0.031303197 0.040819511 0.0072706342 0.051951755
-0.090665385 -0.10178574 1.0874577 0.034882165 0.04388763 0.0088787377 0.056760211
-0.085217386 -0.1021798 1.0865333 0.033515602 0.048292398 0.012467235 0.060090628
-0.079763107 -0.10169843 1.0866182 0.055182826 0.069402233 0.023276985 0.091671325
-0.074143089 -0.10189369 1.0868459 0.083873287 0.053376287 0.02636081 0.10285256
-0.068622179 -0.10142415 1.0861534 0.079066895 0.052879259 0.033529162 0.1008563
-0.063298926 -0.10159364 1.0871829 0.064019591 0.037496001 0.031531751 0.080614574
-0.058442146 -0.10202951 1.0872943 0.040018976 0.022470668 0.022860497 0.051274277
-0.053108186 -0.10332604 1.0876826 0.015494078 -0.0042121857 0.0048392117 0.016769823
-0.088707648 -0.096412793 1.0883582 0.038605817 0.049108505 0.016264051 0.064548999
-0.084907196 -0.09710376 1.0876311 0.031298168 0.044755384 0.017172307 0.057249524
-0.079823822 -0.09627676 1.0875472 0.046052799 0.050660223 0.023601592 0.072417907
-0.074195385 -0.096526884 1.087082 0.059552372 0.04730767 0.027520239 0.080881789
-0.068958901 -0.096426092 1.0872821 0.065720767 0.031350821 0.026844174 0.077606075
-0.063959956 -0.096749544 1.08688 0.042887047 0.03030166 0.025390625 0.058328152
-0.059127003 -0.097285144 1.0881675 0.014517367 0.01577659 0.012958705 0.025051603
-0.077498525 -0.092837617 1.0885947 0.058132336 0.039133683 0.023540676 0.07392548
-0.074573174 -0.091914095 1.0879934 0.061142266 0.033639714 0.023943156 0.0737786
-0.068352051 -0.092138797 1.0880624 0.053596482 0.020417109 0.021776497 0.061348651
-0.064354263 -0.091906473 1.0886285 0.041266076 0.0021578372 0.011398047 0.042865612
-0.06695573 -0.15472427 1.0923719 0.47021246 0.40959799 -0.1071361 0.6327309
-0.062890902 -0.15543345 1.0923017 0.37021384 0.38256481 -0.049366176 0.5346505
-0.057590786 -0.15569779 1.0918599 0.27745542 0.37773928 -0.057047695 0.47214714
-0.052695628 -0.15519975 1.0910594 0.20219845 0.38877386 -0.1003986 0.44956556
-0.048265927 -0.15480256 1.0937693 0.091277793 0.36799577 -0.15265268 0.40872407
-0.067906424 -0.1512998 1.0918951 0.4516049 0.39956546 -0.11121178 0.61316198
-0.063095115 -0.15126269 1.0917789 0.35263756 0.37821922 -0.065472335 0.52123857
-0.057841793 -0.15131475 1.0916548 0.26179999 0.34709322 -0.044081241 0.43698522
-0.052137624 -0.15122175 1.0917737 0.15530318 0.35550791 -0.094390899 0.39926755
-0.046905819 -0.15090416 1.0917364 0.042443991 0.31045848 -0.12555519 0.33756489
-0.042263355 -0.14972934 1.091467 -0.054504484 0.28455693 -0.20196964 0.35317859
-0.072087705 -0.14391774 1.0901315 0.33081263 0.2503323 -0.017045319 0.41520333
-0.068578936 -0.14562799 1.0917089 0.3239803 0.25946224 -0.0062760115 0.4151184
-0.063394055 -0.14513768 1.0910877 0.24473219 0.18194839 0.041547477 0.30777466
-0.057567213 -0.14594512 1.0920337 0.17636371 0.21724096 0.018559366 0.28043225
-0.05205743 -0.14593601 1.0919549 0.12583795 0.22223271 -0.0087087452 0.25553554
-0.046730574 -0.14570546 1.091409 0.0072754025 0.23496693 -0.084929258 0.24995074
-0.041292548 -0.14567019 1.0920051 -0.087952375 0.22901018 -0.17502692 0.30135643
-0.037405189 -0.14539248 1.0920982 -0.1487197 0.18835704 -0.22643107 0.32994992
-0.072365031 -0.13945901 1.0911902 0.17351796 0.1155585 0.020316422 0.20946361
-0.068671659 -0.14035517 1.0914783 0.17285632 0.091860183 0.035591543 0.19895817
-0.063214689 -0.14034301 1.0920962 0.18708955 0.10607253 0.039465725 0.21865824
-0.057747286 -0.14013478 1.0915443 0.17034787 0.10354338 0.042965204 0.20392556
-0.05245306 -0.13980003 1.0914214 0.10276377 0.10789567 0.029790998 0.15195188
-0.046804033 -0.14050211 1.0920008 0.0072070062 0.13034897 -0.021276385 0.13227049
-0.041292284 -0.14028004 1.0916984 -0.088259399 0.1171132 -0.095395535 0.17494437
-0.036565587 -0.14003232 1.0920814 0.65685028 -0.19402817 -0.67213368 0.95961601
-0.090029225 -0.13225307 1.0893176 -0.046941329 -0.23579769 -0.04813236 0.24519536
-0.084408112 -0.13291141 1.0905392 -0.0036801212 -0.14382881 -0.014267504 0.14458157
-0.078753971 -0.1337872 1.0910233 0.041908789 -0.10771912 -0.0067296624 0.11578014
-0.074072219 -0.13393374 1.0911347 0.081035286 -0.050071135 0.010800511 0.095867023
-0.068695657 -0.13503127 1.0919353 0.13561377 0.0098545514 0.028446496 0.13891512
-0.063202202 -0.1349488 1.0917693 0.14868839 0.0012480984 0.038210124 0.15352462
-0.057507031 -0.13471821 1.0914876 0.14111528 -0.0040780171 0.046801001 0.14872958
-0.052015543 -0.13473676 1.091958 0.076428562 0.05360622 0.029708326 0.097967014
-0.046855684 -0.13494553 1.0917948 0.005443871 0.036785737 -0.00017565489 0.037186787
-0.041391157 -0.13420238 1.0913868 -0.084390998 0.028253416 -0.064338714 0.10981605
-0.035757467 -0.13474129 1.0920713 0.66806895 -0.094728008 -0.69933349 0.97178024
-0.032410573 -0.13450722 1.0936005 0.7042197 -0.098092608 -0.62886637 0.94922096
-0.094065808 -0.128427 1.0915558 0.054533456 -0.083739907 -0.013794959 0.10087899
-0.090576045 -0.12888294 1.0915263 -0.033714764 -0.17264967 -0.026615798 0.17791289
-0.085268512 -0.12880896 1.0915625 0.036506165 -0.13378617 -0.011443138 0.13914879
-0.079951793 -0.12917747 1.091205 0.048095338 -0.097380526 -0.0029575527 0.10865024
-0.074055053 -0.12935027 1.0917069 0.047635976 -0.075747751 0.0025684237 0.089518182
-0.06876912 -0.12912324 1.0917923 0.096345991 -0.070399113 0.011816055 0.11990915
-0.06347996 -0.12897006 1.0913672 0.11059871 -0.044160046 0.023433834 0.12137268
-0.057669893 -0.12964627 1.0921739 0.13243638 -0.017851578 0.04006508 0.13951087
-0.052223772 -0.12920558 1.0917075 0.12112369 -0.045740396 0.042116106 0.13615029
-0.04684177 -0.12932906 1.0916421 0.0054001063 -0.051397137 0.00032627583 0.051681072
-0.041175034 -0.12953003 1.0920839 -0.084053397 -0.020301765 -0.063469857 0.10726396
-0.0357631 -0.12918149 1.0916712 0.66889888 0.0075124037 -0.71895242 0.9820258
-0.032366954 -0.12837562 1.0927043 0.7150017 0.013301458 -0.64157426 0.96074027
-0.095811613 -0.12299936 1.0912197 0.02588575 -0.013148502 -0.004806608 0.029428873
-0.09067411 -0.12369846 1.0919971 -0.0067504141 -0.062448554 -0.0075906515 0.063269325
-0.085293412 -0.123961 1.0917529 0.030064553 -0.081343725 -0.0087967515 0.087166861
-0.079537541 -0.12371427 1.0915663 0.055722639 -0.085130185 -0.004247576 0.10183419
-0.074278191 -0.12337502 1.0917571 0.063018605 -0.097158283 -0.00054168701 0.11580747
-0.068771146 -0.12377236 1.0915403 0.113109 -0.075086907 0.010832071 0.1361948
-0.062923029 -0.12383748 1.0918633 0.14015442 -0.025458759 0.028582811 0.14528726
-0.057676222 -0.1237787 1.0918133 0.12828363 -0.01302702 0.037791759 0.13436745
-0.052269123 -0.12350067 1.0915723 0.091548815 -0.051975302 0.030353397 0.10956252
-0.046567488 -0.12386493 1.0921715 0.030391395 -0.071235195 0.0046610236 0.077587463
-0.041224744 -0.12406958 1.0917637 0.57336593 0.11328192 -0.80745804 0.99677974
-0.035954412 -0.1238092 1.0919291 0.65412533 0.11822385 -0.72821921 0.98598182
-0.032340713 -0.12249424 1.0938258 0.70296538 0.13975035 -0.65057909 0.96795851
-0.10004182 -0.11710813 1.092223 0.096350312 0.11137582 -0.015298396 0.14806078
-0.096423358 -0.11869393 1.0920186 0.044114023 0.043719053 -0.0026495159 0.062164482
-0.090899006 -0.1179165 1.0917853 0.01604199 -0.0043079033 -0.001934737 0.01672264
-0.085508175 -0.11807857 1.0913256 0.016685996 -0.020785768 -0.0025207996 0.026773589
-0.079579346 -0.11863507 1.0921502 0.051577888 -0.043869141 -0.0021511614 0.067745164
-0.07405033 -0.11814087 1.091849 0.098382823 -0.017416149 0.0068478882 0.10014687
-0.068720728 -0.11828728 1.0917112 0.12860671 0.0042983815 0.022949874 0.13070905
-0.063291006 -0.11811808 1.0917214 0.15592051 -0.0061758682 0.036416411 0.16023576
-0.057789594 -0.11797369 1.0912898 0.14187452 0.0011339411 0.044230133 0.1486135
-0.052136347 -0.11854371 1.092139 0.085717767 -0.02919466 0.030442178 0.095533192
-0.046843123 -0.11820102 1.0916429 0.022706002 -0.056469083 -0.0013253987 0.060877554
-0.041410781 -0.11804193 1.0913566 0.54305351 0.22203338 -0.80540323 0.99643379
-0.035873909 -0.11884514 1.0926882 0.64293087 0.19573286 -0.72448397 0.98820466
-0.10464348 -0.11051684 1.0936795 -0.038944535 0.1091446 0.031785071 0.12016451
-0.1009744 -0.11209191 1.0914992 0.048349671 0.099736236 0.0072983503 0.11107778
-0.096132867 -0.11266685 1.0918068 0.027565695 0.088465124 0.011716932 0.093398251
-0.09071853 -0.11292022 1.0917397 0.020519469 0.053650383 0.0072643757 0.057898041
-0.085136503 -0.1127236 1.0919081 0.018411029 0.036973368 0.0052274168 0.041633181
-0.079939567 -0.11295511 1.0916427 0.049024694 0.025728427 0.0057224929 0.055660754
-0.074451268 -0.11242672 1.091645 0.10381521 0.043738849 0.019126356 0.11426505
-0.068695799 -0.11280178 1.0918633 0.13860418 0.038934223 0.03252098 0.14759609
-0.06325952 -0.11306532 1.0917194 0.13078946 0.039592698 0.045337111 0.14397541
-0.05774508 -0.11281698 1.0918974 0.12063811 0.0081697851 0.043326378 0.1284425
-0.052277483 -0.11251432 1.0916014 0.072476998 -0.014578648 0.028057247 0.079073772
-0.047017559 -0.11246768 1.091457 0.0004067719 -0.040434577 -0.013335735 0.042578895
-0.041541319 -0.11327132 1.0923909 0.54903829 0.29061309 -0.77933335 0.99662405
-0.037339296 -0.11348472 1.0923214 0.62558568 0.28735647 -0.707654 0.98727167
-0.10523298 -0.10573136 1.0944674 0.002205655 0.10715634 0.028821498 0.1109866
-0.10112227 -0.10722765 1.0921541 0.034862176 0.093449369 0.014655918 0.10081147
-0.096022919 -0.10718983 1.0915421 0.015251093 0.098824166 0.021160215 0.10220844
-0.090637714 -0.10697553 1.0916574 0.0089815706 0.072312206 0.01775986 0.075000905
-0.085195981 -0.10730433 1.0916958 0.037966561 0.091348961 0.020504385 0.10102733
-0.079680145 -0.10722812 1.0915431 0.036703825 0.1065948 0.029651552 0.11657117
-0.074090198 -0.107365 1.0919771 0.092614494 0.089326121 0.036541283 0.13376048
-0.068741463 -0.10749384 1.091682 0.10507052 0.08246018 0.044576377 0.14080678
-0.063144825 -0.10688966 1.0914527 0.087492935 0.058629587 0.04373771 0.11404135
-0.057605926 -0.10750012 1.0920948 0.089201756 0.032577679 0.042874604 0.10419448
-0.052046519 -0.10745525 1.0916839 0.054185718 -0.0094282776 0.020201236 0.058592442
-0.046750527 -0.10721236 1.0919123 0.48244542 0.35719293 -0.79823518 0.99875909
-0.042506546 -0.10788673 1.0926837 0.55291975 0.35532331 -0.74687421 0.99488497
-0.10076723 -0.1017582 1.0924976 0.030506387 0.070581406 0.016923487 0.078732327
-0.096543759 -0.10180513 1.0916452 0.02888307 0.059481427 0.014964759 0.067795396
-0.090836033 -0.10164206 1.0919353 0.03216812 0.069927052 0.020939797 0.079768762
-0.085216969 -0.10179793 1.0915191 0.029471632 0.090531394 0.03260535 0.10063607
-0.079947211 -0.10161459 1.091767 0.059486523 0.079754561 0.035458028 0.10562532
-0.074359365 -0.10132891 1.0914336 0.091855235 0.086078003 0.044718385 0.13359094
-0.068795212 -0.1017115 1.0916498 0.090247162 0.072137684 0.047250003 0.1248237
-0.063187383 -0.10207757 1.0922447 0.070190094 0.060536832 0.045116484 0.10308664
-0.057600982 -0.10183448 1.0916042 0.040262029 0.030727923 0.028653026 0.05819134
-0.05250977 -0.10162229 1.0917959 -0.0020080209 -0.0025638938 -0.0022204518 0.0039415867
-0.047507439 -0.10313115 1.0925883 0.01613301 0.035896048 0.028071761 0.048340704
-0.043765143 -0.1038174 1.09254 0.028141752 0.056581035 0.049349964 0.080179743
-0.095171042 -0.097147763 1.0930024 0.048697188 0.063335687 0.017198771 0.081722841
-0.090815276 -0.096693881 1.0917815 0.048218299 0.060693204 0.019779414 0.079999343
-0.085173734 -0.096226327 1.0915778 0.029097762 0.08486715 0.037359238 0.097184487
-0.079568669 -0.096118242 1.0918555 0.049982622 0.086446226 0.042538881 0.10853925
-0.07418181 -0.096449755 1.0918139 0.071877062 0.086161494 0.047405332 0.12180879
-0.068711571 -0.095817059 1.0915866 0.060243919 0.057114914 0.040340841 0.092297487
-0.063416123 -0.096140988 1.0915283 0.047816813 0.036750138 0.032150894 0.068342522
-0.058039349 -0.096487179 1.0919658 0.020648569 0.01286228 0.014470696 0.028305525
-0.05208936 -0.097450383 1.0929439 -0.00021791458 0.022110417 0.012251228 0.02527866
-0.049357526 -0.09692765 1.0939124 0.016696379 0.044822201 0.036978245 0.060458161
-0.094546132 -0.09292262 1.0934058 0.088077694 0.011134326 -0.014075518 0.089887559
-0.090218596 -0.091565199 1.0925131 0.053397126 0.025052398 0.0063605011 0.059323955
-0.085284129 -0.09131635 1.0920745 0.040387794 0.052076787 0.025472045 0.07065402
-0.079682723 -0.091241747 1.0920728 0.043971725 0.059535742 0.033534974 0.081256457
-0.074251443 -0.09070158 1.0918337 0.053387664 0.039373249 0.028134167 0.07205572
-0.068688735 -0.090920568 1.0918652 0.043320462 0.03053987 0.02636838 0.059199981
-0.063346379 -0.091266237 1.0920494 0.046016581 0.016513467 0.021377653 0.053359389
-0.058302827 -0.091667309 1.0930588 0.31979555 0.49047744 -0.81060922 0.99996227
-0.08327806 -0.08741568 1.0936035 0.067573592 -0.013873488 -0.01320523 0.070235617
-0.081234768 -0.086637199 1.0933578 0.057884268 -0.0095511377 -0.0076076984 0.059158176
-0.073889889 -0.08727441 1.0935603 0.042775355 -0.0022371411 0.0033892989 0.042967699
-0.070408657 -0.086328797 1.092647 0.036703005 -0.022842318 -0.0092333853 0.044205628
-0.065197811 -0.087289073 1.0937192 0.011510074 -0.01118347 -0.0040935278 0.01656227
-0.067771345 -0.15445335 1.0959351 0.52601033 0.36530963 -0.10548991 0.64905018
-0.062969066 -0.15541291 1.0972599 0.35962737 0.40114078 -0.10732818 0.54933149
-0.057615351 -0.15517285 1.0968844 0.20480996 0.39407223 -0.12427586 0.46117735
-0.052539945 -0.15506755 1.0964851 0.1297728 0.37458247 -0.14082003 0.42069381
-0.047957309 -0.15417352 1.0945115 0.074779421 0.35850477 -0.15431094 0.39740345
-0.068003036 -0.15131949 1.0971113 0.51582605 0.36011451 -0.17913537 0.65410125
-0.063446075 -0.15153684 1.0968319 0.38985676 0.38426358 -0.13056153 0.56275493
-0.057700302 -0.15138011 1.0970721 0.21261689 0.37769663 -0.12014216 0.44977197
-0.052187216 -0.15110143 1.0973557 0.084126934 0.3467412 -0.14222372 0.38410205
-0.047071099 -0.15130906 1.0971248 -0.0016600192 0.31023356 -0.166695 0.35218582
-0.0422117 -0.14984347 1.0969744 -0.076363921 0.25577769 -0.1844036 0.32443544
-0.068750001 -0.1442422 1.094852 0.22695631 0.20560077 -0.0013695657 0.30623963
-0.062685743 -0.14685084 1.0954652 0.27670869 0.28583485 -0.030035555 0.39896291
-0.057365295 -0.1466644 1.0964434 0.15816498 0.3322266 -0.088920265 0.37854657
-0.05231218 -0.14566359 1.0968893 0.039403409 0.30269426 -0.12208465 0.3287569
-0.046681881 -0.1458331 1.0971001 -0.043627918 0.25932068 -0.14770022 0.30160564
-0.041333292 -0.14579323 1.0972624 -0.11045212 0.21935916 -0.18860477 0.30966091
-0.036781877 -0.14416105 1.0961735 -0.15595952 0.15811881 -0.19854587 0.29790166
-0.067318678 -0.1407907 1.0951 0.092232995 0.064295404 0.021395802 0.11444914
-0.06250564 -0.14035906 1.0948794 0.113443 0.063027523 0.032928795 0.13388835
-0.057791471 -0.14041735 1.0951347 0.12113766 0.084230244 0.034338802 0.15148669
-0.05131821 -0.14074714 1.0962375 0.049491659 0.11064264 0.0053271651 0.12132435
-0.046563126 -0.1401352 1.097353 -0.045253351 0.13939148 -0.061431974 0.15890795
-0.041262362 -0.1404634 1.0971301 -0.13164759 0.14008863 -0.15028754 0.24401282
-0.035936944 -0.14006108 1.097363 0.65881437 -0.17103268 -0.67421365 0.95804626
-0.032249581 -0.13955066 1.0975276 0.66884601 -0.14558868 -0.66082621 0.95144224
-0.064052358 -0.1342008 1.0948989 0.11099345 -0.0036021341 0.031129777 0.1153325
-0.057446461 -0.1345444 1.0955181 0.1012091 0.035276022 0.035552531 0.11292326
-0.051660948 -0.1345087 1.0960312 0.055588722 0.035267901 0.023372084 0.06985832
-0.046627562 -0.13428588 1.0966742 -0.013788179 0.0074197222 -0.0083273649 0.017734462
-0.041067041 -0.13508171 1.0972896 -0.12889479 0.045597322 -0.11203659 0.17676306
-0.035743725 -0.13489413 1.0974677 0.69461942 -0.10221377 -0.6438005 0.95258749
-0.031988673 -0.13458708 1.0972335 0.70522225 -0.087541141 -0.62151372 0.9440769
-0.08980979 -0.12824668 1.0947287 -0.061206963 -0.19224621 -0.035125792 0.20478944
-0.086305365 -0.12850705 1.0949974 -0.030233359 -0.18292645 -0.02856946 0.18759626
-0.07754679 -0.12673345 1.0946243 0.041660663 -0.097935863 -9.9241734e-05 0.10642864
-0.072601452 -0.12853114 1.094728 0.059244357 -0.065923415 0.0072761476 0.088931054
-0.069315143 -0.12860391 1.0950191 0.098301016 -0.061479993 0.014659166 0.11686647
-0.063018151 -0.12955166 1.0952389 0.089187987 -0.022442259 0.025124103 0.095338196
-0.057315648 -0.12925284 1.0958625 0.11654367 -0.015037412 0.039710134 0.12403809
-0.052602042 -0.12925062 1.0956224 0.08118704 -0.011186423 0.034259707 0.08882679
-0.046386845 -0.12966596 1.0969623 -0.013217524 -0.0041471813 -0.0079779923 0.015985943
-0.041181453 -0.12895162 1.0972625 0.5994817 0.04295516 -0.79183167 0.99409294
-0.0361307 -0.12893113 1.0969065 0.67336708 0.023042083 -0.70838737 0.9776333
-0.031368725 -0.12967405 1.097989 0.7131139 0.0046080295 -0.63270545 0.95334613
-0.094826475 -0.12404317 1.0951389 -0.052180182 -0.082745999 -0.0090567172 0.09824305
-0.091373108 -0.12435275 1.0953972 -0.047610357 -0.083713129 -0.011211038 0.096955255
-0.085491635 -0.12273392 1.0951409 0.010251682 -0.088192433 -0.010775328 0.089437746
-0.080398723 -0.12359757 1.0949765 0.035981365 -0.094379634 -0.0058628023 0.10117582
-0.074257232 -0.12465699 1.0953435 0.05428252 -0.088881321 0.0025215447 0.10417696
-0.068635508 -0.12304096 1.0949433 0.13241969 -0.039257862 0.022360891 0.13991484
-0.062877655 -0.1235852 1.0951898 0.1322263 -0.0067941882 0.036299974 0.13728672
-0.058189519 -0.12347254 1.0954046 0.12911466 0.016602151 0.044783682 0.13766555
-0.051794529 -0.12388906 1.0961759 0.078838363 -0.036235675 0.030760139 0.092058122
-0.046567496 -0.12369022 1.0973179 -0.0022426844 -0.028097123 -0.0051482618 0.028652793
-0.041158356 -0.12393497 1.0973452 0.5870775 0.10244337 -0.79873586 0.99656087
-0.03554824 -0.12381976 1.0972801 0.67788351 0.097367279 -0.70031786 0.97951597
-0.031666946 -0.12398294 1.0972379 0.71035105 0.10256648 -0.639584 0.96134603
-0.099611051 -0.11591312 1.0946951 0.056296326 0.12248619 0.0033053458 0.1348446
-0.096023612 -0.11837659 1.0953853 -0.027824745 0.023327552 0.0070555806 0.036988813
-0.090894096 -0.11817344 1.0950829 -0.0099159069 -0.00040854514 0.00070720911 0.0099494858
-0.084614627 -0.11796322 1.0955681 0.0049747396 -0.019426476 -0.0020745993 0.020160357
-0.079926491 -0.11807533 1.0955311 0.066644631 -0.027908102 0.0005581975 0.072254278
-0.074631721 -0.11739932 1.0955347 0.094649605 0.0028999336 0.013205856 0.095610417
-0.068925299 -0.11787833 1.0956439 0.14767668 0.0064904392 0.034733057 0.15184502
-0.06365069 -0.11797681 1.0953454 0.1568756 0.015591949 0.04760313 0.16467884
-0.05780356 -0.11886612 1.0961286 0.12678492 0.034214333 0.050742954 0.1407831
-0.051902857 -0.11780418 1.0969554 0.05146037 -0.0022064224 0.024709135 0.057127744
-0.046902023 -0.11792746 1.0968002 0.021507129 -0.033568233 0.004419148 0.040111244
-0.041170079 -0.11865691 1.0973586 0.58053529 0.19741529 -0.78548628 0.99648517
-0.035766132 -0.11833414 1.0975521 0.66535652 0.2156055 -0.68273574 0.9774012
-0.032275513 -0.11882392 1.097333 0.70060635 0.20170686 -0.62812489 0.96232831
-0.10086493 -0.11166551 1.0953835 -0.0042914897 0.104096 0.023509592 0.106804
-0.09633977 -0.11296079 1.0954078 -0.0027910471 0.097300917 0.0183447 0.099054463
-0.089682408 -0.11318897 1.0961565 -0.0085669495 0.045239814 0.0085420907 0.046829484
-0.08524628 -0.112605 1.0960031 0.016652789 0.063333631 0.010065347 0.066255376
-0.079679437 -0.11284462 1.0961443 0.063379638 0.072464444 0.014472127 0.097352535
-0.074023165 -0.11262009 1.0962745 0.10460809 0.048354812 0.027561188 0.11849329
-0.069390081 -0.1133274 1.0954865 0.1536881 0.054320604 0.044251919 0.16890529
-0.062296774 -0.1123266 1.0958016 0.13776997 0.052849084 0.056114882 0.15786852
-0.057244629 -0.11246277 1.0963219 0.11144666 0.0096729994 0.045416653 0.12073358
-0.052095495 -0.11295881 1.0969843 0.052237034 -0.0053560734 0.023866743 0.057680294
-0.04655496 -0.11296897 1.0972655 0.0059302598 -0.022832125 -0.0032804608 0.023816703
-0.041079856 -0.11239782 1.0972964 0.57733381 0.29230905 -0.75438571 0.99390984
-0.036381636 -0.11313677 1.0973147 0.63725632 0.30131763 -0.68384922 0.98210877
-0.032537784 -0.11434272 1.0998399 0.67002964 0.28450704 -0.64104921 0.96996295
-0.10467818 -0.10770494 1.0957947 -0.035497472 0.103833 0.03303495 0.11459786
-0.10179774 -0.10702908 1.0959674 0.003206335 0.086556494 0.02324003 0.089679465
-0.09690281 -0.10662967 1.0956694 -0.01479698 0.095785432 0.028806329 0.10111184
-0.090113632 -0.10744492 1.0959324 -0.0043447949 0.10371882 0.028320283 0.10760348
-0.085626863 -0.10734168 1.095621 0.040507514 0.11812877 0.031841308 0.12887642
-0.07965681 -0.10774574 1.0960289 0.041950211 0.11730476 0.038593829 0.13042128
-0.074111275 -0.10695184 1.0962522 0.11585799 0.10952845 0.04911381 0.16682842
-0.06904123 -0.10662237 1.0954925 0.12173475 0.090770841 0.05435282 0.16128522
-0.062959559 -0.10732271 1.0963331 0.10418135 0.058854707 0.052815109 0.13079399
-0.057584569 -0.10711822 1.0972272 0.082387477 0.045456544 0.046384573 0.10490721
-0.052179735 -0.10710007 1.0970616 0.037751481 0.002406925 0.018921643 0.042296525
-0.046780538 -0.10725295 1.097224 0.51189923 0.3190136 -0.79674977 0.99931014
-0.041508719 -0.10722364 1.0969826 0.57334906 0.35283995 -0.72992426 0.99298269
-0.037100635 -0.10918639 1.0982332 0.61882949 0.34920043 -0.67926574 0.98300195
-0.10513984 -0.10349572 1.0973194 0.083528936 0.061196983 -0.0034576654 0.10360555
-0.10217052 -0.10227446 1.0966678 -0.02563557 0.096602522 0.035711199 0.10613444
-0.095987149 -0.10149717 1.0964121 0.024076477 0.08092998 0.026409 0.088469051
-0.090953268 -0.10151756 1.0963805 0.021673109 0.10526606 0.037197977 0.11372931
-0.085586332 -0.10168438 1.0959646 0.042207599 0.12808104 0.048443139 0.14329331
-0.079654709 -0.10120725 1.0956925 0.057469316 0.12435229 0.054354519 0.1473792
-0.074271731 -0.10223218 1.0957987 0.061039031 0.13014969 0.058414996 0.1551677
-0.06837865 -0.10154753 1.0963758 0.085255548 0.093520641 0.057811379 0.13912863
-0.063208587 -0.10134267 1.0972595 0.070958339 0.09524177 0.059894294 0.13301656
-0.058017399 -0.1017049 1.0968632 0.057863936 0.062042609 0.046892941 0.096935384
-0.052359298 -0.10197608 1.0976086 0.010513008 0.019835636 0.013877481 0.026392428
-0.046812691 -0.10191416 1.0972486 0.01471217 0.023777559 0.020612806 0.034737706
-0.04245165 -0.10296644 1.0981922 0.058311746 0.063114211 0.079218924 0.11687301
-0.10077608 -0.097371474 1.0970103 0.056369007 0.053879604 0.010890305 0.078734204
-0.096115567 -0.096081771 1.0971477 0.04131712 0.072799399 0.025608838 0.087536678
-0.090742804 -0.09592545 1.0968796 0.053649604 0.089723572 0.035335004 0.11035018
-0.085304491 -0.096014589 1.0963851 0.039191976 0.10198979 0.046808451 0.1188653
-0.079726323 -0.09632843 1.0964022 0.045431066 0.10533126 0.051909 0.12590949
-0.074141033 -0.095705442 1.0962099 0.067437559 0.095164016 0.053124726 0.12816493
-0.068623148 -0.096398696 1.0971787 0.056287177 0.10089123 0.057922393 0.12923734
-0.063012816 -0.096460946 1.0972608 0.038180001 0.053641185 0.038558006 0.076300777
-0.057451211 -0.096328318 1.0974876 0.013670936 0.030221701 0.020786881 0.039145116
-0.052396629 -0.096471041 1.0971391 0.0073100924 -0.0044196546 0.0013478696 0.0086479792
-0.048481937 -0.097963288 1.0977675 0.031420439 0.057501078 0.05547148 0.085852794
-0.094981119 -0.091277458 1.0975198 0.091081649 0.015267938 -0.0095942616 0.092849486
-0.090834819 -0.091092005 1.0973456 0.096045099 0.0087723434 -0.0093882084 0.096900739
-0.08514405 -0.090535633 1.0972519 0.058702074 0.05442065 0.027867526 0.084759302
-0.079714119 -0.090941489 1.0969082 0.049866199 0.075822577 0.042557508 0.10023394
-0.074402742 -0.090664871 1.0973105 0.046315633 0.05077979 0.034113586 0.076729797
-0.068820104 -0.090500601 1.097196 0.039366521 0.027554825 0.024808347 0.054078143
-0.063582331 -0.090641432 1.0968561 0.020820312 0.029503644 0.023097098 0.042865209
-0.058227424 -0.091109551 1.0976297 0.33701181 0.49497491 -0.8005389 0.9997198
-0.053928494 -0.092072561 1.0982016 0.023865506 0.040922761 0.039505213 0.061683845
-0.090002798 -0.086642623 1.0986774 0.090630092 -0.024854362 -0.02874136 0.09827318
-0.084958225 -0.085893877 1.097546 0.06737911 -0.0041647255 -0.0062077343 0.067792512
-0.079566456 -0.086192764 1.097641 0.044486102 0.0084534585 0.006822437 0.045793232
-0.074047826 -0.085402153 1.0976031 0.027821541 -0.007070303 -0.0012326241 0.028732328
-0.068701044 -0.085759617 1.0971892 0.021822311 -0.025090635 -0.012574822 0.035551082
-0.063457295 -0.086034678 1.0980357 0.24209443 0.55093753 -0.79752767 0.99909574
-0.060087472 -0.087154917 1.0965657 0.0088156313 0.07594341 0.063634038 0.099470638
-0.071892373 -0.082250684 1.0988171 0.1318403 0.61272037 -0.77404451 0.9959684
-0.070555791 -0.081869647 1.0984896 0.16762459 0.61419868 -0.76510298 0.99534953
-0.066189148 -0.1550104 1.1002038 0.42976347 0.38121754 -0.13799256 0.59081751
-0.065160058 -0.15437092 1.1004333 0.36963266 0.39006537 -0.13001856 0.55288708
-0.057710685 -0.15459906 1.1009849 0.13544655 0.37993503 -0.15187448 0.43100145
-0.068138413 -0.15135173 1.1008787 0.41638559 0.36309126 -0.16341829 0.57612306
-0.062611878 -0.15278748 1.1010017 0.26026714 0.37571117 -0.11540884 0.47139904
-0.056462094 -0.15233684 1.1020297 0.089898378 0.37333316 -0.18617019 0.42675367
-0.052215606 -0.15119828 1.1019926 0.073923036 0.35868853 -0.17616078 0.40639231
-0.046496991 -0.1503541 1.102108 -0.038015723 0.29860285 -0.19324125 0.35770243
-0.043490984 -0.15078528 1.1026541 -0.065346301 0.26142177 -0.17346123 0.32046884
-0.050498445 -0.14760187 1.1007106 0.018886715 0.33182472 -0.17976949 0.3778643
-0.046011366 -0.14598839 1.1021513 -0.075733155 0.26954985 -0.19626978 0.34192756
-0.041581616 -0.14538611 1.1024317 -0.12357987 0.24418947 -0.23036857 0.35772917
-0.037793733 -0.14452289 1.1019317 -0.14206465 0.20409316 -0.2103091 0.3256782
-0.04555599 -0.14039341 1.1017368 -0.11943282 0.19905593 -0.17201692 0.28892434
-0.041307449 -0.140315 1.102392 -0.1542123 0.16387445 -0.19627698 0.29859826
-0.036365379 -0.13939911 1.1027219 0.66797042 -0.14372821 -0.66706908 0.95489448
-0.032187562 -0.13819578 1.1012146 0.65825719 -0.11837951 -0.69016171 0.9610616
-0.045578543 -0.13548017 1.1012604 -0.074889317 0.034130108 -0.054193199 0.098540232
-0.041200325 -0.13500868 1.1027108 0.65879488 -0.11671648 -0.6975348 0.96653414
-0.03591416 -0.13460231 1.1025951 0.68396002 -0.093782425 -0.66304201 0.95719439
-0.031800691 -0.13446204 1.1021113 0.67365652 -0.053153742 -0.68606281 0.96297485
-0.045024417 -0.12818114 1.1010826 -0.01974833 0.027383458 -0.011570722 0.03568938
-0.040973675 -0.12954712 1.1020098 0.6408124 0.0036107237 -0.74964285 0.98621398
-0.035830501 -0.12960841 1.1026489 0.68393517 -0.019127652 -0.68484813 0.96806514
-0.031419732 -0.12894367 1.1029984 0.69080514 0.0062952358 -0.66925091 0.96184623
-0.045422327 -0.12293506 1.1015489 0.0025292933 0.017763074 0.0035066903 0.018281711
-0.041095778 -0.12364884 1.1023921 -0.055022806 -0.0097987428 -0.041008443 0.069319673
-0.035841294 -0.12342421 1.1026698 0.68726027 0.10706256 -0.68051624 0.97308344
-0.031209415 -0.12386538 1.1022395 0.69758862 0.09506318 -0.65996611 0.96499854
-0.050301593 -0.11815903 1.1004089 0.055020317 0.017654128 0.030648559 0.065408237
-0.046123754 -0.1185522 1.1018018 0.0070371926 0.003349632 0.0048161447 0.009161734
-0.041058823 -0.118165 1.1026448 0.58552313 0.17641979 -0.78715467 0.99678171
-0.035697725 -0.11807752 1.1027861 0.67981505 0.21606329 -0.6568408 0.96967608
-0.031873852 -0.11883999 1.1028701 0.67826152 0.20444053 -0.66264635 0.97001791
-0.050329965 -0.11261507 1.1016655 0.022122353 0.039704472 0.021407396 0.050240625
-0.046556592 -0.11227142 1.1019378 0.017198056 0.012786873 0.013264984 0.02520391
-0.04115181 -0.11322196 1.1027923 0.59428883 0.28980827 -0.73685396 0.99001098
-0.035906337 -0.11325087 1.1026665 0.65589345 0.31595901 -0.63926601 0.96885878
-0.03285069 -0.11333271 1.1015075 0.67001933 0.29639018 -0.63258809 0.96795702
-0.055958461 -0.10814373 1.1003075 0.072534069 0.047511466 0.044569701 0.097493529
-0.051598784 -0.10703763 1.1011683 0.036319628 0.028541058 0.027490288 0.053753354
-0.040864713 -0.10756426 1.1022147 0.60535932 0.38549465 -0.66602188 0.97910732
-0.037319321 -0.10793923 1.1026516 0.62653828 0.38021046 -0.63736838 0.97126138
-0.065694727 -0.099379398 1.1010756 0.06407702 0.10066865 0.060554206 0.1338165
-0.050998908 -0.10133219 1.1013993 -0.41835159 -0.35012954 0.83691895 0.99902058
-0.046449516 -0.10155879 1.1021649 0.051682472 0.05298683 0.06653887 0.099529415
-0.042319365 -0.10219303 1.1025512 0.10762742 0.082786649 0.1514211 0.20338544
-0.066987731 -0.09542159 1.101374 0.045543782 0.10826649 0.060120076 0.13194807
-0.063741989 -0.096643269 1.1007242 0.063589714 0.086975381 0.057526588 0.12213794
-0.057896562 -0.095777556 1.1009375 0.01626958 0.030988693 0.022297919 0.041499343
-0.052219488 -0.095557325 1.1014971 0.054776654 0.061321512 0.07608217 0.11202369
-0.047410607 -0.097636633 1.1025251 0.071824983 0.11988451 0.15289031 0.207139
-0.090211868 -0.089624837 1.1005303 0.074853256 0.03454338 0.012289673 0.083350413
-0.087724209 -0.088030815 1.1010621 0.081892021 -0.011628062 -0.01410839 0.083908051
-0.078539081 -0.088653982 1.1001903 0.048326496 0.044870585 0.028991699 0.072037064
-0.072895259 -0.089707106 1.1012044 0.051549874 0.066249341 0.043251634 0.094430231
-0.068800002 -0.090683855 1.1012437 0.041178174 0.044719324 0.033942252 0.069624253
-0.061698779 -0.090855636 1.1007861 0.0047126412 0.023251086 0.015020907 0.028079346
-0.057446111 -0.09053205 1.1018518 0.030284703 0.024471611 0.030515522 0.049469385
-0.052826725 -0.092097804 1.1023082 0.069441855 0.10530071 0.13495922 0.18472791
-0.085461125 -0.085585549 1.1005952 0.092396319 -0.013020277 -0.015595824 0.094603583
-0.079174489 -0.084926724 1.1010859 0.031370122 0.010156721 0.0085653365 0.034067705
-0.074310005 -0.085349008 1.101877 0.029716957 -0.0067512095 -0.00087234378 0.030486675
-0.068982147 -0.085102573 1.1013248 0.014239341 -0.022754431 -0.012266427 0.02951251
-0.063751817 -0.085460864 1.1013895 0.24259412 0.55717218 -0.7927599 0.99887985
-0.059114467 -0.087136053 1.1016078 0.026355177 0.067867249 0.063709676 0.096744411
-0.074156903 -0.081430055 1.1012635 0.033253063 -0.047558129 -0.031046093 0.065813385
-0.068266228 -0.081947923 1.1025672 0.200317 0.5911721 -0.77733552 0.99692619
-0.044246614 -0.1450904 1.1057745 -0.097898573 0.25536558 -0.20347185 0.34087607
-0.042187992 -0.14381346 1.1062347 -0.093064576 0.26179311 -0.19859052 0.34151843
-0.040371466 -0.14030635 1.1062068 -0.14495458 0.17866071 -0.18918467 0.29786292
-0.038064167 -0.13753338 1.1064773 0.66853762 -0.12042753 -0.67975247 0.96099365
-0.038741395 -0.13423753 1.1056325 0.67706954 -0.1073915 -0.66675609 0.95630527
-0.035489094 -0.13450578 1.1065004 0.6692965 -0.089212753 -0.68752545 0.96364307
-0.032327436 -0.13484275 1.1064248 0.66148001 -0.078871809 -0.69540668 0.96299893
-0.034486391 -0.12949328 1.1065824 0.68951255 -0.03082435 -0.66834301 0.96076018
-0.03222793 -0.12907369 1.1066484 0.68141949 -0.012818702 -0.68024832 0.96293026
-0.039655838 -0.12134232 1.1068521 0.66493571 0.11889763 -0.71127754 0.98091382
-0.036288101 -0.12166731 1.1060441 0.68359923 0.12835255 -0.6801089 0.97279519
-0.03170006 -0.12412664 1.1063478 0.69453537 0.076988161 -0.66328657 0.96346021
-0.039925821 -0.11834059 1.1061442 0.64752805 0.19025049 -0.71641016 0.98424149
-0.036006495 -0.11936058 1.1065091 0.68111801 0.18426515 -0.6661247 0.9703595
-0.03248813 -0.11808047 1.1066425 0.67552584 0.21490321 -0.66046393 0.96888137
-0.038642406 -0.11328094 1.1055418 0.64378422 0.3076168 -0.66325867 0.97416544
-0.036057822 -0.1126158 1.1059875 0.65074635 0.30801523 -0.65434074 0.97288537
-0.039624773 -0.10522063 1.1055292 0.62350243 0.39557657 -0.63227427 0.97211462
