# .PCD v0.7 - Point Cloud Data file format
VERSION 0.7
FIELDS x y z normal_x normal_y normal_z curvature
SIZE 4 4 4 4 4 4 4
TYPE F F F F F F F
COUNT 1 1 1 1 1 1 1
WIDTH 574
HEIGHT 1
VIEWPOINT 0 0 0 1 0 0 0
POINTS 574
DATA ascii
0.57315087 -0.1307904 0.97418678 0.024046883 0.0021993965 -0.0059772134 0.024876034
0.5774473 -0.13233943 0.97415024 0.017816693 0.029256254 -0.011630565 0.036175031
0.5826934 -0.13203107 0.97370982 -0.024806932 0.043236174 -0.010406882 0.05092204
0.58769363 -0.13215961 0.97331131 -0.050143957 0.062774889 -0.017231137 0.082170643
0.59227443 -0.13220246 0.9731378 -0.066679351 0.067016602 -0.021055251 0.096853934
0.59678477 -0.13186525 0.97283727 -0.07678245 0.091114447 -0.031269729 0.12318759
0.6011591 -0.13140228 0.97398746 -0.11443232 0.10545909 -0.042531312 0.16132355
0.56877691 -0.12661169 0.9743045 0.020398661 -0.049570542 0.0041207075 0.053761736
0.57322872 -0.12718816 0.97372472 0.030106507 -0.046510696 0.0019466281 0.055438578
0.57779318 -0.12688418 0.97308242 0.026278708 -0.061808772 0.0053059459 0.067372456
0.58298337 -0.12745313 0.97290361 -0.0090200901 -0.010617025 0.00278157 0.01420635
0.58807439 -0.12730451 0.97272193 -0.031488761 0.0085493475 -0.0013920963 0.032658406
0.59268063 -0.12759444 0.97295427 -0.042619649 0.025995344 -0.0069884658 0.050408643
0.59739047 -0.12755974 0.97283351 -0.051052969 0.033998653 -0.010537714 0.062236305
0.60183561 -0.12669109 0.97344577 -0.072730608 0.05142761 -0.018195629 0.090915464
0.60628957 -0.12615362 0.9739151 -0.10735171 0.083551839 -0.032423526 0.13984485
0.56829017 -0.12332943 0.97387844 0.015750438 -0.084153548 0.0051929951 0.085772157
0.57334608 -0.12299796 0.97386581 0.028016865 -0.10116353 0.0022374988 0.1049953
0.57818681 -0.12293288 0.97340083 0.023124665 -0.1050669 0.0045141876 0.10767629
0.58341128 -0.12277699 0.97344476 0.0025939494 -0.094335034 0.0077034831 0.094684593
0.58820063 -0.12262872 0.97320747 0.001252715 -0.071485877 0.0056827962 0.071722344
0.59315044 -0.1227089 0.97297126 -0.020373274 -0.023102704 0.0013601482 0.030832699
0.59766924 -0.12258453 0.97300112 -0.017216731 -0.0057066195 -0.0009201467 0.018161168
0.60239601 -0.12264308 0.97326225 -0.036007617 0.027673189 -0.0073133111 0.045998242
0.60665917 -0.12207627 0.97403729 -0.076336086 0.052087575 -0.017959327 0.09414272
0.56726968 -0.11956955 0.97406673 -0.0039231852 -0.10775042 0.0042042136 0.10790375
0.57468283 -0.11919583 0.97488958 0.008238472 -0.12099604 0.0024343133 0.12130062
0.57833445 -0.11830644 0.9744429 0.020277441 -0.1390444 -0.0017745197 0.1405264
0.58362693 -0.11755092 0.97398651 0.028220337 -0.13135976 -0.0026180744 0.1343824
0.58868295 -0.11790123 0.97368258 0.042232893 -0.088115737 0.00045886636 0.097714953
0.59329039 -0.11750326 0.97340256 0.029263243 -0.04933764 0.0018497407 0.057393044
0.5983029 -0.11745512 0.97281367 0.015224814 -0.024833933 0.0017664433 0.029182862
0.60295779 -0.11748861 0.97346979 -0.0020958409 0.0053504845 -0.00037580729 0.0057585994
0.60723048 -0.11743961 0.97355759 -0.033328984 0.016882325 -0.0052396357 0.037726488
0.58421534 -0.11399521 0.97471523 0.041355096 -0.12167074 -0.0078865886 0.12874863
0.58890289 -0.11260014 0.97432262 0.073604643 -0.098630726 -0.0088909566 0.12338846
0.5935396 -0.11293989 0.97384173 0.060807284 -0.065661535 -0.0022360981 0.089520745
0.59803951 -0.11262053 0.97365117 0.050343879 -0.035465762 0.0016636252 0.061604336
0.60292453 -0.1127183 0.97340268 0.018033672 -0.023733929 0.00068789721 0.029815868
0.60753334 -0.11280516 0.97387743 -0.013575785 -0.0011759195 -0.0021018088 0.01378776
0.59225136 -0.10845324 0.97475243 0.096807688 -0.049499501 -0.0061182678 0.1089007
0.59655768 -0.10761444 0.97424847 0.07256747 -0.037486352 -0.00070559978 0.081680857
0.60166943 -0.10796576 0.97385037 0.036562603 -0.024187803 0.0010329783 0.04385135
0.60637587 -0.1075509 0.97432727 0.021831043 -0.02617947 -0.00091478229 0.034099795
0.59789675 -0.10410995 0.97483867 0.062029161 -0.034870349 -0.001604706 0.071176775
0.60226029 -0.10283936 0.97439498 0.043938655 -0.030261055 -0.0012978613 0.053366855
0.60776705 -0.10497473 0.97468001 -0.0083312318 -0.018953301 -0.0048622787 0.021266848
0.57773066 -0.14007913 0.978531 -0.013765715 0.16309734 -0.075935483 0.18043402
0.58139294 -0.14044784 0.97955316 -0.039042931 0.22876738 -0.12517443 0.26368067
0.56308025 -0.13552226 0.97970974 0.019859254 0.060964018 -0.028209388 0.070048347
0.56689543 -0.13595867 0.97872764 0.033124506 0.068164974 -0.034906238 0.083439454
0.5723508 -0.13688804 0.97828823 0.025226392 0.083310351 -0.038369179 0.095127173
0.57654101 -0.13693215 0.97807485 0.0013774559 0.093908906 -0.036343575 0.10070568
0.582066 -0.13713317 0.97754288 -0.036060832 0.11068773 -0.038752407 0.12269437
0.58706218 -0.13727707 0.97784364 -0.056414232 0.15741651 -0.064699471 0.17930014
0.59160525 -0.13677667 0.97747886 -0.10646066 0.16391444 -0.070867777 0.20790397
0.59613729 -0.13628265 0.9779461 -0.1383099 0.20023599 -0.10158986 0.26371306
0.60038579 -0.13547349 0.97933638 -0.16724026 0.21226773 -0.11583218 0.29401359
0.55758089 -0.13112402 0.97957855 0.03045857 0.020538315 -0.017797679 0.04082039
0.56245869 -0.13203864 0.97853869 0.017159 0.036617607 -0.017109334 0.04390911
0.56712949 -0.13243359 0.97796696 0.031219773 0.038589045 -0.021365523 0.05403956
0.5724352 -0.13246767 0.97753817 0.017996445 0.02937445 -0.013205618 0.036893342
0.57698554 -0.13231887 0.9773407 0.00047293305 0.038789608 -0.011665612 0.040508565
0.58231109 -0.13254403 0.97770786 -0.02061414 0.049684055 -0.012602717 0.055247411
0.58726001 -0.13236202 0.97721404 -0.033657447 0.054402649 -0.013779193 0.065439574
0.59203917 -0.1326537 0.97765994 -0.081200123 0.1242861 -0.045827061 0.1553725
0.59673697 -0.13239865 0.97745925 -0.10776676 0.14038461 -0.057709485 0.18615021
0.60134125 -0.13200428 0.97756898 -0.16473867 0.16700017 -0.086632818 0.25006625
0.60571653 -0.13101143 0.97902167 -0.20371261 0.18613024 -0.11165124 0.29767314
0.55228394 -0.12578598 0.97961169 0.020468146 -0.010334253 -0.0062737763 0.023771875
0.55810785 -0.1272032 0.97873002 0.011040121 -0.023359656 0.0014076233 0.025875455
0.56254804 -0.12755871 0.97802436 0.015238464 -0.02772259 0.0013240576 0.031662375
0.56746864 -0.12745288 0.97745222 0.032940902 -0.025040448 -0.0036647022 0.041539825
0.57282621 -0.12751886 0.9773832 0.022487469 -0.030157834 0.0010683239 0.03763406
0.57725036 -0.12767781 0.97790056 0.015525751 -0.024931155 0.0022701323 0.029457849
0.58267218 -0.12736732 0.97735506 -0.00019139796 -0.017567128 0.0033198893 0.017879102
0.58756286 -0.12766141 0.97769302 -0.024930945 0.01619713 -0.0026565492 0.02984889
0.59242547 -0.12742172 0.9774037 -0.027581185 0.029867902 -0.0062955022 0.041139357
0.59715772 -0.12749621 0.97748435 -0.046647146 0.051015273 -0.013349921 0.070404083
0.60208839 -0.12754768 0.97761405 -0.12818481 0.11682989 -0.051213413 0.18084078
0.60626197 -0.12697215 0.97744071 -0.17364235 0.13509727 -0.072795987 0.23173735
0.55329198 -0.12217811 0.97893274 0.0006634593 -0.055073138 0.0085535347 0.055737365
0.55812341 -0.12255373 0.97852916 -0.0033182055 -0.056403153 0.0095000565 0.05729378
0.56291997 -0.12227561 0.97786528 0.0078818202 -0.063540146 0.0055126548 0.064264007
0.5676797 -0.12246043 0.97742832 0.016680337 -0.072346091 0.0036118031 0.074331932
0.57329392 -0.12232726 0.97761399 0.014335424 -0.087517686 0.0052750111 0.08884073
0.57761335 -0.12239156 0.9773916 0.015183747 -0.095034793 0.0058218539 0.096416034
0.58303654 -0.12253665 0.97758693 0.011909511 -0.072702579 0.0064259171 0.073951289
0.58801329 -0.12242636 0.97749078 0.0093790554 -0.043011814 0.0044118166 0.044243045
0.59265828 -0.12247602 0.97746569 -0.0081433309 -0.010838732 0.00099900365 0.013593747
0.59761149 -0.12261175 0.97751558 -0.019198461 0.011252996 -0.0026656985 0.022412423
0.60250276 -0.12244242 0.97733176 -0.023536183 0.034295894 -0.0058715641 0.042007565
0.60718977 -0.12262769 0.97777462 -0.13377786 0.097350284 -0.043417484 0.17105167
0.61160386 -0.12080164 0.97928023 -0.19695957 0.12027523 -0.077035517 0.2432975
0.55312842 -0.11777405 0.97958195 -0.02366522 -0.070212342 0.015379816 0.075672679
0.55856347 -0.1174575 0.97847092 -0.0075688511 -0.095606953 0.0078808963 0.096229345
0.56322062 -0.11762484 0.97784799 -0.0010011345 -0.10717229 0.0038477182 0.10724601
0.56822222 -0.11759125 0.97769433 -0.0040293261 -0.11200809 0.0041767061 0.11215834
0.57346529 -0.11730631 0.97732347 0.0032317787 -0.12417877 0.0019191206 0.12423564
0.57807785 -0.11736054 0.97744513 0.011147447 -0.13386023 -0.00016754866 0.1343237
0.58335727 -0.11758336 0.97752929 0.029902965 -0.12608112 -0.0018222034 0.12959151
0.5883233 -0.11738247 0.97726601 0.04894378 -0.086146176 -0.00086390972 0.099082813
0.59317237 -0.11764016 0.97757107 0.025134142 -0.03858592 0.0019091964 0.046089515
0.5977937 -0.11749908 0.97737294 0.017058294 -0.011008726 0.0015050173 0.020357862
0.60287845 -0.11761674 0.97763556 -0.0011195987 0.014716752 -0.0005852282 0.014770877
0.60744375 -0.11746906 0.97733063 -0.02555906 0.03280836 -0.0039833486 0.041779432
0.61186266 -0.11765495 0.97836697 -0.16935082 0.077552937 -0.05339554 0.19376594
0.55921096 -0.11360866 0.97905689 -0.014068365 -0.11764453 0.0037997961 0.11854364
0.5632686 -0.11270674 0.97865278 -0.008020103 -0.13636847 -0.0023446083 0.13662422
0.56822956 -0.11263132 0.97817063 -0.017564893 -0.14293499 -0.0016776919 0.14401998
0.57336611 -0.11269531 0.97804683 -0.0011261851 -0.14380641 -0.0049529076 0.14389609
0.57790929 -0.11251054 0.97754592 0.011299871 -0.14475706 -0.0073871911 0.14538522
0.58343661 -0.1123061 0.97744232 0.054898158 -0.11433631 -0.01130873 0.12733613
0.58827728 -0.11254225 0.97743261 0.08813487 -0.088232532 -0.0098642707 0.12510012
0.59337801 -0.1125109 0.97738659 0.070397392 -0.055611044 -0.0024675429 0.089746699
0.5982917 -0.11256819 0.97750109 0.047935024 -0.027065035 0.0017265081 0.055075072
0.60315704 -0.11255874 0.97741228 0.01729317 -0.0087257903 0.0014454722 0.019423762
0.60782403 -0.11242196 0.97750336 -0.010547221 -0.0072501414 -0.0020622611 0.012963847
0.61244226 -0.11230544 0.97799563 -0.14624625 0.025035311 -0.040216208 0.15372728
0.55490631 -0.10751044 0.97997504 -0.029115163 -0.099539325 0.0031425655 0.10375763
0.55758137 -0.10770135 0.97963506 -0.036879092 -0.1065187 0.0029200017 0.11276004
0.56193829 -0.1073464 0.97921079 -0.028730765 -0.10745752 -0.00025874376 0.11123239
0.56703746 -0.10799626 0.97882628 -0.025491193 -0.11892234 -0.0016296506 0.12163461
0.57162768 -0.10767042 0.97856557 -0.019821286 -0.11487042 -0.003926754 0.11663411
0.5766992 -0.10763906 0.97821623 0.012223065 -0.10349498 -0.011058718 0.10479938
0.58203012 -0.10765297 0.97800863 0.06549371 -0.070569791 -0.013567686 0.097229637
0.58680183 -0.10759026 0.97743964 0.08560437 -0.051340498 -0.0094604492 0.10026692
0.59245306 -0.10758532 0.97765917 0.099924177 -0.040123515 -0.0049629211 0.10779317
0.59706885 -0.10742727 0.97747779 0.060982957 -0.041772436 -0.0018866658 0.073941983
0.60233212 -0.10746712 0.97730041 0.042185418 -0.038105167 -0.0013476312 0.056863252
0.60715002 -0.10751747 0.97778362 0.018100277 -0.026453372 -0.0017090738 0.032098625
0.61177212 -0.10740279 0.97793674 -0.073749699 -0.014265925 -0.018772453 0.077426992
0.56226683 -0.10406161 0.97991586 -0.02417995 -0.077603512 -0.0010846257 0.081290536
0.56728345 -0.10265769 0.97931117 -0.017179966 -0.06453073 -0.0052280426 0.066982821
0.57174432 -0.10262413 0.97906017 -0.0064928532 -0.052304022 -0.007250011 0.053201791
0.57679331 -0.10275339 0.97861499 0.018824913 -0.04257109 -0.0096406341 0.047535427
0.58187598 -0.1025377 0.97828031 0.064294055 -0.022278003 -0.0094536841 0.068697944
0.58629525 -0.10265592 0.97798491 0.091794141 -0.020624407 -0.0076542497 0.094393417
0.5919171 -0.10261696 0.9776755 0.090233654 -0.030287504 -0.0052500367 0.095325798
0.59647161 -0.10245346 0.97740185 0.066628017 -0.037161618 -0.0037659407 0.076383643
0.60181832 -0.10266612 0.97768861 0.050440207 -0.025510214 -0.00033894181 0.056525219
0.60630125 -0.10269584 0.97770149 0.019955188 -0.023012936 -0.002243191 0.030542376
0.61185193 -0.10310896 0.97854066 -0.074024908 -0.028350174 -0.023321956 0.082627676
0.5725596 -0.099067733 0.97976369 0.0062424764 0.017799191 0.0031110048 0.019116959
0.57684261 -0.098020568 0.97942746 0.032293566 0.034253396 0.0039615333 0.0472426
0.58231664 -0.09768682 0.97862756 0.065886661 0.024408333 0.00079789758 0.070267029
0.58657575 -0.097967193 0.97863245 0.075193644 0.00054349005 -0.0019421279 0.075220682
0.59191436 -0.097477593 0.97822964 0.069476232 -0.031288952 -0.0075876117 0.076573603
0.59756809 -0.097948223 0.97784114 0.064557478 -0.030286774 -0.0034861863 0.071394049
0.60213709 -0.097435758 0.97815168 0.037775803 -0.04537642 -0.0091692209 0.05975036
0.60685265 -0.097865507 0.97845316 0.015396107 -0.023968548 -0.0044018924 0.028825475
0.61066073 -0.098344021 0.97924978 -0.051838659 -0.030965775 -0.019212902 0.063366093
0.57713091 -0.092215799 0.97968167 0.020695321 0.025871515 0.0057975054 0.033633951
0.58239251 -0.093600422 0.97965926 0.045338906 0.016416907 0.0022640526 0.048272736
0.58687758 -0.092598133 0.97916991 0.058016613 -0.003155157 -0.0023117959 0.058148317
0.59208906 -0.093368053 0.97890276 0.066355146 -0.0049819052 -4.2498112e-05 0.066541918
0.59749186 -0.092714474 0.97923142 0.057518005 -0.034011528 -0.0081929266 0.067321829
0.60218537 -0.09341459 0.97885394 0.034615573 -0.036900774 -0.0082691908 0.051266797
0.60666752 -0.094692379 0.97903144 -0.0023051798 -0.045777872 -0.015628248 0.048426952
0.58766574 -0.089411303 0.97984552 0.056067839 0.0080854148 0.0024057329 0.056698889
0.59329861 -0.089012876 0.97907025 0.048310675 -0.011278287 -0.0024017394 0.049667791
0.59865606 -0.089419559 0.97985661 0.033042789 -0.039419845 -0.013593972 0.053202879
0.56938809 -0.14030758 0.9836359 0.013219558 0.2193134 -0.13481015 0.25777295
0.57362306 -0.14066067 0.98381829 0.0050417632 0.23821245 -0.14984053 0.28146541
0.57829022 -0.14080901 0.98224956 -0.015818626 0.24415947 -0.14663345 0.28524628
0.58301938 -0.14090104 0.98296291 -0.068809956 0.26382565 -0.15889063 0.31557095
0.58829904 -0.14070228 0.98295528 -0.094618335 0.26102334 -0.1507771 0.31594232
0.59210032 -0.14046921 0.98282558 -0.11673373 0.25598663 -0.14519131 0.31660137
0.55813116 -0.13611101 0.98413783 0.032808557 0.098692715 -0.053155124 0.11679949
0.56251508 -0.13677387 0.98319936 0.027973682 0.12766418 -0.067408204 0.14705282
0.56655777 -0.13685435 0.98266286 0.041546062 0.12177294 -0.067529082 0.14530967
0.57225782 -0.137665 0.98255467 0.015193887 0.18577087 -0.10280406 0.21286227
0.57676786 -0.1374917 0.98253691 -0.0011060312 0.18516769 -0.095098913 0.20816363
0.5818069 -0.13736707 0.9823032 -0.0463719 0.21042246 -0.10704491 0.24059629
0.58766806 -0.13780709 0.98287338 -0.084183395 0.25632834 -0.14831719 0.30787832
0.59196281 -0.13744596 0.98223054 -0.12028067 0.25312465 -0.14587313 0.31594065
0.59625345 -0.13656616 0.98215574 -0.14061892 0.23160543 -0.12573546 0.29870415
0.60019457 -0.13574176 0.98271191 -0.17114897 0.21322861 -0.11711583 0.29744667
0.54776502 -0.13015436 0.98442906 0.0064820647 0.030116089 -0.012097955 0.033096172
0.55180323 -0.13136791 0.98360848 0.035464317 0.035080045 -0.02725324 0.056842469
0.55701298 -0.13232307 0.98294979 0.020170107 0.056425452 -0.026977181 0.065714791
0.56148833 -0.13241927 0.98250258 0.017440841 0.036226988 -0.017341286 0.043786958
0.5667004 -0.13240574 0.98235428 0.021485716 0.016516238 -0.010838717 0.029187325
0.57197666 -0.13271078 0.98267102 0.022397168 0.022053793 -0.011972427 0.033635426
0.57646364 -0.13263476 0.98207742 -0.0021447763 0.041271061 -0.012055844 0.043049317
0.58176386 -0.13286158 0.98199373 -0.030829294 0.069486469 -0.018866003 0.078324586
0.58707809 -0.13290234 0.98172104 -0.062650189 0.13428386 -0.049146801 0.15611729
0.5917412 -0.13232628 0.98188132 -0.089375883 0.17561117 -0.074652374 0.21071382
0.59663415 -0.13267124 0.98244685 -0.15550695 0.20485774 -0.11056513 0.27995312
0.60135221 -0.13214068 0.98234195 -0.17272414 0.21447173 -0.12009677 0.3004247
0.60557687 -0.13104072 0.98212516 -0.16832301 0.20478494 -0.10385662 0.28470284
0.5475983 -0.12717557 0.98347908 -0.00032243133 0.019945726 -0.0052744448 0.020633848
0.5518285 -0.12745501 0.9827978 0.011687621 0.0077872872 -0.0070231855 0.015702467
0.55704784 -0.12739907 0.98241776 0.011217564 -0.018472344 1.886487e-05 0.021611609
0.56200612 -0.1273921 0.98227912 0.0057750642 -0.021570489 0.0028782189 0.022514917
0.56696206 -0.12767574 0.98268384 0.019132935 -0.027688831 0.00060090423 0.033661574
0.57234055 -0.12743135 0.98222643 0.032366343 -0.026687548 -0.0025556386 0.042027809
0.57681388 -0.1273662 0.98227137 0.0066453218 -0.021003537 0.0029714406 0.022229223
0.58237135 -0.12744163 0.98175949 -0.0057038702 0.0019123927 0.00015518069 0.0060179285
0.58728778 -0.12718621 0.98132914 -0.021544438 -0.0040568188 0.001481384 0.021973053
0.59251058 -0.12759824 0.98192096 -0.049356833 0.080011897 -0.021193832 0.096370012
0.59699333 -0.12750065 0.98203462 -0.12518081 0.12870215 -0.055190742 0.18783103
0.60176843 -0.12767877 0.98242223 -0.17094113 0.17417666 -0.093246281 0.26125324
0.60623699 -0.12746747 0.98205024 -0.17768413 0.18665142 -0.096992701 0.27535066
0.54301053 -0.12235512 0.98406494 -0.018041044 -0.0071834922 0.010372311 0.022015147
0.54755116 -0.12243299 0.98306811 -0.014422446 -0.023454867 0.010864675 0.02960032
0.55217987 -0.12236629 0.98215878 -0.00052693486 -0.039625995 0.0071235001 0.040264644
0.5575543 -0.12257273 0.98240733 0.00062859058 -0.049275327 0.0076056719 0.049862806
0.56226653 -0.1226413 0.98267603 0.012850091 -0.055776242 0.0036337674 0.05735258
0.56730336 -0.12234 0.98225433 0.020020448 -0.05065513 0.0013332963 0.054484293
0.57263732 -0.12270301 0.98268771 0.020458482 -0.055685367 0.0025385916 0.059378903
0.57725406 -0.12264658 0.98233998 0.010435849 -0.058108319 0.0059033632 0.059332397
0.58254957 -0.12256707 0.98207444 0.0061261207 -0.061093424 0.0066629052 0.061760262
0.58758062 -0.12284955 0.98177952 0.0040672794 -0.019998256 0.0025229156 0.020563029
0.59241432 -0.12257446 0.98112005 0.0061823158 -0.0074909478 0.00091001391 0.0097551756
0.59715509 -0.12283415 0.98126233 -0.010723343 0.017301474 -0.0026077628 0.020521488
0.60234171 -0.12314359 0.98146987 -0.10580871 0.073784336 -0.030287206 0.13250254
0.60701776 -0.12246855 0.98168796 -0.17875409 0.11880399 -0.068846047 0.22540452
0.61153591 -0.12077251 0.98114884 -0.19953461 0.12806 -0.080047727 0.25024199
0.53847253 -0.11631425 0.98465073 -0.015342504 -0.028599661 0.012218386 0.034678839
0.54252589 -0.11718842 0.98352313 -0.022519752 -0.041754704 0.016746312 0.050309379
0.54795533 -0.11744611 0.98256743 -0.031812564 -0.046568967 0.019445479 0.059655968
0.55248785 -0.11761645 0.98255664 -0.013648957 -0.072514743 0.01255393 0.074848399
0.55788797 -0.11759242 0.98257518 -0.016748399 -0.097214617 0.01263833 0.099453092
0.56265503 -0.117392 0.98221868 0.010002315 -0.10852906 0.0027114153 0.10902273
0.5676111 -0.11768245 0.98261654 0.014453098 -0.11202384 0.0019226074 0.11296871
0.57309681 -0.11750437 0.98243833 -0.0015862733 -0.13567755 0.0032830536 0.13572654
0.5774194 -0.11740471 0.98224241 0.011132285 -0.13340567 0.0012673736 0.13387534
0.58291638 -0.11759045 0.98165119 0.032351851 -0.11139716 -0.00084140897 0.11600292
0.5879938 -0.11756212 0.98128045 0.045370556 -0.089390256 -0.00065675378 0.10024738
0.59276849 -0.11731184 0.98121816 0.031785317 -0.040402904 0.0014718473 0.051428273
0.59769732 -0.11742359 0.98066986 0.016073277 0.0011409447 0.0010262132 0.016146366
0.60257071 -0.11708295 0.98059946 0.010202155 0.011165392 0.0007699728 0.015144068
0.60748303 -0.11798012 0.98098469 -0.13648623 0.083133444 -0.039952368 0.16472964
0.61179757 -0.11701406 0.98132223 -0.21481727 0.10361561 -0.081518471 0.25204745
0.53884482 -0.11250445 0.98390806 -0.026949465 -0.035930123 0.017558604 0.04822398
0.54286629 -0.11283375 0.98340011 -0.043971047 -0.062916979 0.025207102 0.080792308
0.54815918 -0.11293462 0.98323858 -0.050985232 -0.087984949 0.023906499 0.10446227
0.55288661 -0.11253887 0.98248386 -0.040451616 -0.1049185 0.016096652 0.11359281
0.55815899 -0.1124593 0.98236471 -0.033149086 -0.1164829 0.010003984 0.1215204
0.56299067 -0.11262333 0.98258734 0.0067273229 -0.12983456 -0.0024687648 0.13003217
0.56802553 -0.11250962 0.98253077 0.005448103 -0.14284721 -0.0034641027 0.14299303
0.57341367 -0.1123386 0.98235798 -0.015452482 -0.14838016 -0.00019004941 0.14918274
0.57796049 -0.11239567 0.98204809 0.018913738 -0.13203821 -0.0068300068 0.13356072
0.58333063 -0.11233324 0.98145908 0.061565414 -0.10832797 -0.012021065 0.12517889
0.58845222 -0.11202937 0.98146409 0.092072189 -0.075026467 -0.0097606778 0.11917017
0.59332699 -0.11228117 0.98137897 0.077581957 -0.042912502 -0.0020748377 0.088683411
0.59769034 -0.11228403 0.98129779 0.05459094 -0.029545384 0.00089979172 0.062079869
0.60302335 -0.11284564 0.98083198 0.018700544 -0.0052321684 0.001760006 0.019498296
0.60730726 -0.11210527 0.9807542 -0.012154963 0.0034830086 -0.0014154911 0.012723132
0.61268932 -0.11242405 0.98204988 -0.21244147 0.044466011 -0.074316829 0.22941577
0.53898835 -0.10905902 0.98466557 -0.045597106 -0.028334178 0.026412129 0.059829112
0.54321116 -0.10761473 0.98452199 -0.073548675 -0.054039486 0.034431934 0.097546048
0.54864645 -0.10739044 0.9834584 -0.075631186 -0.07827796 0.027056336 0.11215864
0.55332702 -0.10755134 0.98281384 -0.048605978 -0.095172226 0.012496889 0.10759399
0.55845201 -0.10782255 0.98275423 -0.029760808 -0.10845313 0.0046804547 0.11255974
0.56299609 -0.10752246 0.98261791 -0.018162936 -0.11662196 -0.00011363626 0.1180279
0.56799281 -0.10740387 0.98223108 -0.021879584 -0.11782561 -5.0574541e-05 0.11983987
0.57330865 -0.10755811 0.98258615 -0.0026712567 -0.097370833 -0.0063835382 0.097616419
0.57796544 -0.10735214 0.98232448 0.040701397 -0.079898939 -0.012551963 0.090542786
0.58349997 -0.10732177 0.98213732 0.086013407 -0.050839499 -0.012837201 0.10073606
0.58859354 -0.10750061 0.98176992 0.093663938 -0.040965166 -0.0082142949 0.10256
0.59332132 -0.10743628 0.98231322 0.093699418 -0.038486596 -0.0045439899 0.10139747
0.59777945 -0.10749818 0.98152578 0.063480228 -0.037146095 -0.0015558898 0.073566243
0.60280544 -0.1073447 0.98093933 0.045503173 -0.030876607 -0.00044962764 0.054991867
0.60787731 -0.1072894 0.9807663 0.0092202052 -0.019549154 -0.0018714964 0.021695254
0.61263889 -0.10749572 0.98195672 -0.19920611 0.0055300295 -0.070946634 0.21153507
0.61502445 -0.10555442 0.98098731 -0.21482888 -0.0038150847 -0.082196087 0.23004825
0.54465705 -0.10216968 0.98394841 -0.090015918 -0.034949102 0.036964834 0.10339586
0.54917419 -0.10260629 0.98369861 -0.076775774 -0.042648517 0.024550319 0.091192834
0.55335373 -0.10276752 0.98358852 -0.060017347 -0.049517922 0.014030963 0.079063103
0.55721694 -0.10241514 0.98246503 -0.04607439 -0.045963395 0.0062417388 0.065379225
0.56192231 -0.10247011 0.98236692 -0.034393266 -0.047525279 0.0016558468 0.058688078
0.56704974 -0.10258409 0.98264134 -0.022470392 -0.054610144 -0.003310591 0.05914513
0.57173628 -0.10247153 0.98235279 0.0023791343 -0.04037473 -0.0070185959 0.041049235
0.57684577 -0.10249521 0.98246741 0.037408408 -0.023839332 -0.00857687 0.045180365
0.58216417 -0.1026123 0.98269874 0.075147949 -0.014702395 -0.0084694028 0.077039637
0.58657098 -0.10240279 0.98226386 0.092742205 -0.021430187 -0.0076858401 0.095495768
0.59202367 -0.10266869 0.9821009 0.086864784 -0.036717556 -0.0065755546 0.094535224
0.59633976 -0.10250066 0.98177809 0.0674318 -0.043379992 -0.0058313012 0.080392011
0.6016441 -0.10222655 0.98125303 0.059395727 -0.037853263 -0.0033357441 0.070511341
0.60635322 -0.10274182 0.98088497 0.027609393 -0.016048521 -6.8932772e-05 0.031934906
0.61227673 -0.1024074 0.98212576 -0.17890881 -0.036534339 -0.072033077 0.1962954
0.61507428 -0.10444208 0.98184937 -0.2141636 -0.0042854995 -0.081824452 0.22930254
0.54481238 -0.098571084 0.98474026 -0.089213699 0.0072125122 0.044942707 0.10015464
0.54743606 -0.098376133 0.98453152 -0.088234097 0.0084569752 0.041260839 0.097771332
0.55098933 -0.097502403 0.98380613 -0.068648741 0.021575458 0.031748146 0.078651734
0.55661374 -0.097634993 0.98316789 -0.03795097 0.027409621 0.017747611 0.050065368
0.56207085 -0.097829983 0.98289943 -0.026473187 0.028652407 0.012413561 0.040937595
0.56693083 -0.097464979 0.98260874 -0.01562696 0.028675131 0.0096153915 0.034042925
0.57177967 -0.097523585 0.98248494 -0.00039320439 0.030596651 0.0075499415 0.031516843
0.57657546 -0.097698443 0.98263848 0.026668418 0.029975832 0.0044980645 0.040373106
0.58168644 -0.097470783 0.98241508 0.063021064 0.010016665 -0.0023130476 0.063854039
0.58628446 -0.097382046 0.98237795 0.069360346 -0.0086020231 -0.004123956 0.070013277
0.59134305 -0.097629398 0.98204082 0.072994888 -0.023826212 -0.0058636367 0.077008598
0.59685332 -0.097170249 0.98210067 0.061137665 -0.038106874 -0.0074549317 0.072425991
0.60237324 -0.097442567 0.98170716 0.039731238 -0.043995529 -0.0086927116 0.059914447
0.60696876 -0.096941873 0.98212236 0.0058094263 -0.057212897 -0.017677844 0.060162872
0.61177045 -0.098178096 0.98249328 -0.1571129 -0.059984893 -0.071662128 0.18280621
0.55228037 -0.092626423 0.98386079 -0.040378004 0.053977862 0.033333093 0.075200319
0.55694419 -0.092802703 0.98378378 -0.034156539 0.05647932 0.028841853 0.072030798
0.56221646 -0.092558183 0.98347574 -0.02047763 0.055393383 0.022690922 0.063266404
0.56731355 -0.092542179 0.98282915 -0.015794091 0.053019322 0.019561797 0.058678497
0.57215893 -0.09261623 0.98284942 -0.012161124 0.040797248 0.014340997 0.044921849
0.57686549 -0.092392378 0.9826563 0.016980145 0.025909811 0.0065277815 0.031658422
0.58208346 -0.092435323 0.98234785 0.029612275 0.021530047 0.0057541132 0.037061296
0.58670974 -0.092519291 0.98274249 0.047970928 -0.0035271496 -0.0019898415 0.048141565
0.59197599 -0.092232496 0.98222101 0.056608632 -0.01576142 -0.004265368 0.058916494
0.59716702 -0.092459656 0.9825694 0.052662335 -0.036916316 -0.010283947 0.065129831
0.60238099 -0.092613377 0.982328 0.022736125 -0.058628544 -0.019588053 0.065862961
0.6069724 -0.093514808 0.98315465 -0.077592164 -0.10242087 -0.061696202 0.14253771
0.61072385 -0.094944417 0.98364311 0.27511528 0.38243395 -0.85480243 0.97602838
0.55294192 -0.088570178 0.98445129 -0.040033638 0.0605845 0.039189428 0.082516573
0.55712843 -0.08742772 0.98426074 -0.031647459 0.050093979 0.030850202 0.066803463
0.56274593 -0.087811038 0.98382682 -0.017338701 0.053300545 0.025482059 0.061570399
0.56770241 -0.087919235 0.98373735 -0.020544916 0.051175043 0.02349782 0.059942693
0.57243407 -0.087738417 0.98309106 -0.0090944059 0.0504383 0.021360874 0.055524927
0.5772922 -0.08788728 0.98300999 0.019000571 0.041534439 0.014858097 0.048030142
0.58251178 -0.087640725 0.98271054 0.022841893 0.024211332 0.0092594922 0.034549657
0.58689487 -0.087548278 0.98230726 0.04142148 0.010231033 0.0039466023 0.042848438
0.59230238 -0.087962449 0.98265439 0.046873394 -0.0019233525 0.00057640672 0.046916381
0.59704548 -0.0879502 0.98281831 0.04664734 -0.020968482 -0.0061749518 0.051514871
0.60164446 -0.089122765 0.98323834 -0.016711704 -0.071599633 -0.035044253 0.081448682
0.55777472 -0.084379569 0.98487771 -0.036443666 0.062759057 0.039164931 0.08246655
0.5629707 -0.082773626 0.98465204 -0.014543056 0.066720873 0.035400689 0.076918036
0.5679996 -0.082693167 0.98406732 -0.015090868 0.062447339 0.033267051 0.07234709
0.57301337 -0.082989141 0.98378438 -0.0038953722 0.063009158 0.030122578 0.069947824
0.57766974 -0.082955845 0.98360741 -0.0020929612 0.044298485 0.022094339 0.049546909
0.58231759 -0.083393231 0.98328203 0.014560843 0.036702141 0.017006099 0.042991541
0.58723038 -0.083840862 0.98419327 0.024710121 0.012866095 0.0061453283 0.028528783
0.5927766 -0.084334247 0.983729 0.028838899 -0.011174783 -0.0040280819 0.031189475
0.59625244 -0.084424511 0.98493534 0.020152152 -0.025765285 -0.010883152 0.034473207
0.56824511 -0.079547159 0.9847514 -0.030361593 0.048227191 0.031148642 0.064945564
0.57896733 -0.079989448 0.98499173 -0.014112599 0.025516763 0.014967948 0.032776672
0.56958884 -0.14033467 0.98695505 0.015455566 0.24275811 -0.16124803 0.29184121
0.57352042 -0.14078864 0.98756409 -0.001228258 0.24778438 -0.15888566 0.29435226
0.57813501 -0.14125592 0.98655558 -0.040499609 0.24803472 -0.14753729 0.29142529
0.58251536 -0.14098868 0.986902 -0.062563762 0.25564599 -0.14963615 0.30275413
0.5887363 -0.14063406 0.98667759 -0.085647702 0.25383437 -0.14030072 0.30240983
0.5923692 -0.14052187 0.98608363 -0.11247493 0.24771747 -0.13517347 0.30378681
0.55464238 -0.13525225 0.98840868 0.046508148 0.19314918 -0.12941313 0.23710203
0.55891061 -0.13625178 0.98742235 0.036004961 0.2076326 -0.13656753 0.25111422
0.56382012 -0.13729973 0.98751652 0.04222694 0.21985534 -0.15313789 0.27123919
0.56840563 -0.13763843 0.98734581 0.03267327 0.224255 -0.15095177 0.27229446
0.573309 -0.13760254 0.9867366 0.0024104565 0.22841612 -0.13935858 0.26758277
0.57837498 -0.13805595 0.98643398 -0.025109056 0.24845853 -0.15162152 0.29214928
0.58322942 -0.13841386 0.98587209 -0.054155584 0.25430819 -0.14919809 0.29977584
0.58826667 -0.13858169 0.98607081 -0.080455184 0.25532183 -0.14467898 0.3042931
0.59275424 -0.13808542 0.98605114 -0.099878311 0.2512303 -0.1382131 0.30363664
0.59750158 -0.13678487 0.98552364 -0.14231014 0.23670605 -0.12982455 0.30518246
0.60006106 -0.13573675 0.98533726 -0.16486982 0.22537372 -0.12404373 0.30555233
0.54458594 -0.1307653 0.9888531 0.023538277 0.1143033 -0.057805777 0.13023365
0.54848307 -0.13148643 0.98825705 0.031336024 0.14382288 -0.081371039 0.168191
0.5527575 -0.13202462 0.98734093 0.042918801 0.15024333 -0.093101829 0.1818874
0.55779904 -0.13262998 0.9876796 0.022376448 0.14897805 -0.079820514 0.17048894
0.56224912 -0.13294804 0.98713148 0.036832109 0.1492399 -0.085140228 0.17572139
0.56638396 -0.13263124 0.98633718 0.023510262 0.097734571 -0.04544726 0.11031878
0.57171178 -0.13373779 0.98603135 0.027013123 0.15504202 -0.081060141 0.17702679
0.57588494 -0.13425575 0.98562491 0.0074595064 0.1809392 -0.09069556 0.20253475
0.59221673 -0.13359435 0.98522502 -0.095075637 0.23043615 -0.11784539 0.27573127
0.59628236 -0.131752 0.98523045 -0.15255347 0.20587552 -0.11083108 0.27917883
0.60120893 -0.13274403 0.98583573 -0.16325487 0.21365017 -0.11430669 0.29217216
0.60542846 -0.13101974 0.98550695 -0.15713188 0.20751379 -0.10001299 0.27884585
0.53926826 -0.12634444 0.98899424 0.024651051 0.038573928 -0.024430662 0.051889107
0.5431692 -0.12709956 0.98791319 0.0056007951 0.046622619 -0.01615876 0.049660277
0.54727459 -0.127397 0.98721695 0.0029663444 0.019387014 -0.0064897537 0.020658471
0.55179864 -0.1274918 0.98726827 -0.0027555972 -0.0035805926 0.0020180941 0.0049484
0.55650938 -0.12771313 0.98724312 0.0024947971 -0.017018631 0.0029655397 0.017454289
0.56115848 -0.1278971 0.98617762 0.0067285001 -0.012507126 0.00065478683 0.01421723
0.56580365 -0.12682906 0.98541409 0.0077577531 -0.04372742 0.0059330761 0.044804815
0.59804296 -0.12940985 0.98524582 -0.15822311 0.18886805 -0.099006861 0.26553351
0.53445208 -0.12158033 0.98937869 0.0055761635 0.014649481 -0.0060460269 0.016800456
0.53771597 -0.12237845 0.98791438 0.012467399 0.020317495 -0.01170373 0.026555864
0.54172784 -0.12240317 0.98742497 0.0024306178 -0.0066595003 -9.6350908e-05 0.0070898612
0.54692358 -0.12245007 0.98705477 -0.014398277 -0.01657404 0.0099145174 0.02408956
0.55149794 -0.12257549 0.98750919 -0.020660311 -0.038130693 0.014999002 0.045888651
0.55695277 -0.12226678 0.98641372 -0.011410683 -0.05191097 0.011969179 0.054481316
0.56178021 -0.1222053 0.98623794 -0.0044870079 -0.062877439 0.0096000731 0.063764155
0.56700236 -0.12244186 0.98580271 0.013616957 -0.044610009 0.0027658641 0.046723917
0.57249528 -0.12206102 0.98562407 0.014095187 -0.062300123 0.0043977797 0.064025931
0.57571596 -0.12426658 0.98607939 0.015962489 -0.047792599 0.004191637 0.050561875
0.5332157 -0.11724436 0.98875499 -0.0066937506 0.0015060566 0.0043071806 0.008101007
0.53668767 -0.11749019 0.98765689 1.0758638e-05 -0.020971529 0.0023387969 0.021101544
0.5418902 -0.1175337 0.98762417 -0.016027272 -0.036431119 0.012869358 0.041829657
0.5471828 -0.11743107 0.98735011 -0.027360782 -0.047138464 0.018136263 0.057441894
0.5519138 -0.11732449 0.9872027 -0.033153608 -0.0592729 0.020089269 0.070823848
0.55732858 -0.11750825 0.98702341 -0.022244558 -0.081595331 0.015278637 0.085942164
0.56226826 -0.11760653 0.98651302 -0.0043815374 -0.096701905 0.0084157586 0.097166255
0.5671804 -0.11728934 0.98617709 0.0029659644 -0.11507711 0.0051608086 0.11523096
0.57172918 -0.1185296 0.98608738 -0.0021333024 -0.10103191 0.0074263215 0.10132693
0.53211457 -0.11281387 0.9883545 -0.0061050355 -0.0045918571 0.0044834316 0.0088576395
0.53695077 -0.1124298 0.98767954 -0.026903838 -0.022743678 0.01764819 0.039402414
0.54208815 -0.11237605 0.98733193 -0.032901421 -0.040100232 0.019990802 0.055589244
0.54766023 -0.11243238 0.98724562 -0.051435336 -0.063334264 0.025817424 0.085576646
0.55216002 -0.11276425 0.98759437 -0.053850412 -0.084548086 0.023906112 0.10305216
0.55779707 -0.11249299 0.98647654 -0.03938891 -0.11699193 0.014207989 0.12425967
0.56251013 -0.11224394 0.98634446 -0.013642982 -0.13007431 0.0046208501 0.13086943
0.5672105 -0.11320353 0.98624265 -0.0022234619 -0.1378358 0.00083845854 0.13785627
0.5726192 -0.11314551 0.98538101 -0.015993483 -0.14678231 0.0025695264 0.14767343
0.57671618 -0.11119971 0.98527563 0.020885348 -0.10682085 -0.0068835616 0.10906088
0.53227335 -0.10750522 0.98909783 -0.013985395 -0.012166206 0.0093581676 0.020764951
0.53730184 -0.10734781 0.9877941 -0.039835021 -0.020603854 0.024208397 0.050964635
0.54257381 -0.10768126 0.9873727 -0.060466751 -0.044524327 0.031057 0.081259958
0.54799658 -0.10765701 0.98758626 -0.084085599 -0.048749704 0.036537379 0.10383593
0.55260748 -0.10744926 0.9872359 -0.071588278 -0.065073505 0.024806499 0.099873945
0.557962 -0.10736859 0.98712689 -0.05484508 -0.073148832 0.014954954 0.092641167
0.56298423 -0.10757009 0.98687851 -0.024910599 -0.08623524 0.0034110844 0.089825891
0.56810749 -0.10715677 0.9862029 -0.024209306 -0.087105051 -0.0011024177 0.090413466
0.57247907 -0.10683349 0.98590225 -0.005779393 -0.066149265 -0.0051679909 0.066602059
0.53326154 -0.10326876 0.98913723 -0.042989165 -0.0051800422 0.028909594 0.052064054
0.5374639 -0.10278893 0.988653 -0.057880387 -0.012300178 0.034648627 0.068570845
0.54303014 -0.1026302 0.98746222 -0.08754234 -0.019123837 0.043815523 0.099745587
0.54826039 -0.10243311 0.98720926 -0.099459738 -0.025223404 0.040855497 0.11044288
0.55288935 -0.10256677 0.98758501 -0.080954894 -0.023956116 0.029216677 0.089337587
0.55839866 -0.10255939 0.98751283 -0.058599547 -0.030080285 0.014402717 0.067425281
0.56312001 -0.10242024 0.98695099 -0.043793827 -0.019785818 0.0076813102 0.048666012
0.56814766 -0.10234072 0.98693758 -0.020775139 -0.027398504 -0.00034880638 0.034386132
0.57343805 -0.10264458 0.9862572 0.011717603 -0.023399547 -0.0055989027 0.026761703
0.57769048 -0.1017969 0.98554254 0.050236769 -0.0035253465 -0.0066492856 0.050797384
0.58255231 -0.10056584 0.98508853 0.073636919 0.0071080774 -0.0038315058 0.074078344
0.61273587 -0.10174005 0.98537338 0.33058757 0.23958328 -0.88643932 0.97594208
0.53398579 -0.097334906 0.98945731 -0.03679046 -0.0030717626 0.024812222 0.044481684
0.53795958 -0.097526565 0.98897386 -0.068425655 0.004718028 0.043129474 0.081021488
0.54369181 -0.097508751 0.98766249 -0.083206773 0.0024392828 0.044891566 0.09457574
0.5485788 -0.097663157 0.98757076 -0.084677175 0.017462313 0.043180436 0.096642159
0.55329007 -0.097619511 0.98768467 -0.070287272 0.03217525 0.035987228 0.085267976
0.55781794 -0.097428188 0.98759192 -0.058044143 0.033180088 0.026838332 0.072043993
0.56219047 -0.097400412 0.98718065 -0.034748226 0.037696533 0.018272579 0.054427519
0.56685847 -0.097444579 0.9869085 -0.018681094 0.038522877 0.013286412 0.044827715
0.57139194 -0.097352758 0.98625052 0.0045200884 0.034143291 0.008125484 0.035386708
0.57616574 -0.09725225 0.98632646 0.024002463 0.029839247 0.004817009 0.038596664
0.58136797 -0.097524635 0.98595268 0.054614857 0.0040560961 -0.0024350584 0.054819375
0.58595109 -0.097063288 0.98539662 0.073176712 -0.0057501048 -0.0039048493 0.073506072
0.59037608 -0.095312834 0.98513454 0.068026945 -0.0086854249 -0.0022928417 0.068617478
0.60792536 -0.095878877 0.98575324 0.26189104 0.36922795 -0.87026536 0.98095769
0.61057848 -0.096068218 0.98523825 0.28078678 0.36923486 -0.85972989 0.97688848
0.5383209 -0.094096169 0.98982155 -0.06620276 0.019136451 0.046141863 0.082934193
0.54373515 -0.092853151 0.98853952 -0.073202074 0.043503672 0.052617431 0.10009848
0.54778439 -0.092433557 0.98790157 -0.07348147 0.044850096 0.049346536 0.099227704
0.55181265 -0.092749313 0.98702902 -0.056511104 0.058379754 0.043095708 0.0919725
0.55665898 -0.092325434 0.9873901 -0.034529381 0.066530228 0.035567254 0.082967333
0.5617919 -0.092647627 0.98770493 -0.031253733 0.059653491 0.02964282 0.073580101
0.56680465 -0.092407517 0.98727322 -0.023019426 0.050259575 0.022473693 0.059673995
0.57163215 -0.092180349 0.98717862 -0.013952069 0.045882776 0.018410444 0.051369578
0.57666105 -0.09232609 0.98683691 0.018902972 0.034512132 0.0097700953 0.040544599
0.58204436 -0.092242464 0.98622221 0.030732557 0.017976493 0.0046769679 0.035909865
0.58631504 -0.092732832 0.98612022 0.054211199 0.008335948 0.0016548038 0.054873314
0.59170222 -0.092228077 0.98563975 0.05168033 -0.01487802 -0.0041728914 0.053940941
0.59743792 -0.090734616 0.98598182 0.052815128 -0.016438916 -0.0032057762 0.055407155
0.60234439 -0.091678463 0.98602492 -0.05738299 -0.11335377 -0.066224188 0.14327432
0.60638762 -0.09250249 0.98619622 0.22894624 0.43060207 -0.85047221 0.98037618
0.54309738 -0.088415466 0.98891473 -0.066455692 0.056013837 0.056462795 0.10364341
0.54637754 -0.087830715 0.98827428 -0.055539593 0.071455657 0.05510053 0.10595577
0.55158442 -0.087596469 0.98786139 -0.045019597 0.071120828 0.048005551 0.096899271
0.55703467 -0.087721407 0.98755282 -0.048969887 0.062212124 0.041600049 0.089436918
0.56213063 -0.087414272 0.98728079 -0.032258667 0.052068189 0.030768603 0.068545058
0.56725305 -0.08759167 0.98759669 -0.025956616 0.05825983 0.029188395 0.070142113
0.5720073 -0.087605245 0.98768216 -0.0035398751 0.071285814 0.030054927 0.077443503
0.57687885 -0.087674879 0.98732102 0.0060650185 0.052370518 0.021899849 0.05708817
0.58196616 -0.087344453 0.98712784 0.011643559 0.026822105 0.011522919 0.031428896
0.58689976 -0.087681197 0.98643833 0.039871365 0.0079801232 0.0028473735 0.040761694
0.59226584 -0.086873025 0.98709828 0.042989857 0.00022535026 0.0013671219 0.043012179
0.59728903 -0.08713571 0.98706722 0.0048126914 -0.054790467 -0.025997698 0.060836155
0.60161525 -0.088238627 0.98699558 0.17499372 0.49826798 -0.8275671 0.98171335
0.54666549 -0.0836749 0.98964548 -0.047753647 0.068494007 0.05418694 0.099539258
0.55216891 -0.082852237 0.98835355 -0.042039409 0.066377953 0.048193902 0.092173733
0.55706257 -0.082440339 0.98734105 -0.034466416 0.065595299 0.043809086 0.086080857
0.56258714 -0.082605109 0.98731863 -0.029071517 0.075969592 0.044303477 0.092624672
0.56786633 -0.082554184 0.98753119 -0.017250791 0.058436394 0.033244908 0.069409117
0.57244158 -0.082330264 0.98739517 -0.0094795898 0.052604288 0.02859199 0.060618278
0.57714552 -0.082637295 0.98791534 -0.014595281 0.045146421 0.024547726 0.053421088
0.58254063 -0.08238937 0.98770189 -0.00056758896 0.024690166 0.013183087 0.027995003
0.58698326 -0.082383215 0.9875108 0.0087060528 0.014407352 0.0074916184 0.018425295
0.59239167 -0.083145112 0.98787194 0.016643569 -0.034426019 -0.017932713 0.042234361
0.59665811 -0.084199272 0.98778141 0.12516087 0.5056439 -0.84305918 0.99100447
0.55324441 -0.079363413 0.98996484 -0.035707518 0.043530867 0.037985384 0.06791798
0.55736148 -0.078838475 0.98929846 -0.037611745 0.052363053 0.041527003 0.076687835
0.56253302 -0.078640446 0.9881947 -0.028219238 0.069725156 0.044857681 0.087579302
0.56753927 -0.078542843 0.98808116 -0.026554711 0.042967975 0.030412585 0.058960367
0.57261473 -0.078582197 0.98847294 -0.024936065 0.053698272 0.033983916 0.068265796
0.57726473 -0.078669116 0.98808646 -0.02166969 0.030725807 0.019548088 0.042376626
0.58233124 -0.079191543 0.98833579 -0.013970854 0.016326681 0.0098951161 0.023657104
0.58656234 -0.079489693 0.98880428 -0.0018205121 0.0045995563 0.0026670098 0.0056198863
0.57342935 -0.1402379 0.99025261 0.007920891 0.23975286 -0.15264282 0.28433082
0.55424196 -0.13573427 0.99170929 0.044467419 0.22014743 -0.1561507 0.27354211
0.55848628 -0.13624506 0.99111855 0.030267611 0.22835955 -0.15604326 0.2782332
0.56323016 -0.13725756 0.9905495 0.030771062 0.23266566 -0.1623278 0.28536028
0.56703603 -0.13664731 0.99000013 0.034296319 0.22754398 -0.15450931 0.27717435
0.54359239 -0.13067736 0.99268144 0.05356653 0.19732612 -0.13956088 0.24755649
0.54806983 -0.13207512 0.99254698 0.028343901 0.21870995 -0.14273605 0.26269943
0.55323225 -0.13274637 0.99131215 0.049266309 0.2057403 -0.14607832 0.2570897
0.55834693 -0.13277307 0.99063253 0.035138056 0.19995618 -0.12845078 0.24024312
0.53419316 -0.12549192 0.99219483 0.059719414 0.090514958 -0.068784595 0.12841606
0.53835875 -0.12681079 0.9927026 0.065555155 0.11463288 -0.086631984 0.15793441
0.54286617 -0.12764996 0.99251461 0.057277545 0.15861613 -0.10851827 0.20053929
0.54803032 -0.12803532 0.9914149 0.035495535 0.13968921 -0.080180049 0.16492982
0.55235034 -0.1265129 0.99045783 0.0056018084 0.041866362 -0.014420688 0.044633269
0.55513406 -0.1256697 0.99014127 -0.0042214394 -0.0085766986 0.0035868883 0.010210097
0.53390211 -0.12235409 0.9927749 0.021465302 0.051658932 -0.024319291 0.060998626
0.53841615 -0.12250268 0.99250299 0.00098656118 -0.000202097 -0.00054216385 0.0011437166
0.54278296 -0.12246241 0.99225444 -0.0081135631 -0.0061775297 0.0054463148 0.011560888
0.54773504 -0.12233596 0.99095815 -0.024831191 -0.023380041 0.015501052 0.037463278
0.55092502 -0.12257043 0.99128723 -0.029299781 -0.025987074 0.017063856 0.042719789
0.52950299 -0.11622893 0.99316794 0.044812143 0.025938187 -0.036914468 0.063589275
0.53335279 -0.11750548 0.99276763 -0.0015594065 0.011259601 -2.4855137e-05 0.0113671
0.53803343 -0.11748229 0.99220002 -0.019975826 -0.014891231 0.013391435 0.028286269
0.54224861 -0.11718123 0.99216145 -0.030977204 -0.032750696 0.01997 0.04930513
0.54696536 -0.11741724 0.99198961 -0.040506244 -0.040280998 0.023551553 0.061789889
0.55080134 -0.11740585 0.99072492 -0.037926465 -0.061780468 0.022233099 0.07582581
0.52978981 -0.11277672 0.99289018 0.018877178 0.007662423 -0.014254451 0.024864633
0.53264034 -0.1124917 0.99259168 -0.014211357 -0.0011543175 0.0097538531 0.017275207
0.53723347 -0.11244533 0.99289197 -0.037288114 -0.0061281058 0.023645639 0.0445766
0.54167378 -0.11285094 0.99215436 -0.044665411 -0.027772129 0.026305467 0.058807038
0.54718679 -0.11271527 0.99228203 -0.056427956 -0.040213913 0.029583037 0.075342081
0.55075181 -0.1122419 0.99120617 -0.068947464 -0.059648193 0.031060338 0.096314088
0.52987075 -0.10834088 0.99451029 0.012908936 0.010669984 -0.0092927516 0.019153183
0.53186005 -0.1074703 0.9923811 -0.018841714 0.00043925643 0.013549864 0.023212107
0.53657985 -0.10751321 0.99229121 -0.047082663 -0.002224315 0.030145347 0.055950575
0.54104519 -0.10768791 0.99250227 -0.060753047 -0.008974582 0.035362303 0.070865847
0.54815745 -0.10732889 0.99185735 -0.094771728 -0.036832973 0.042458117 0.11018638
0.55124915 -0.1075815 0.99119413 -0.095077783 -0.047069043 0.037603974 0.11255816
0.53219795 -0.10252438 0.99235225 -0.017140418 -0.005089961 0.011803985 0.021425119
0.53694171 -0.10252973 0.992531 -0.05247739 -0.0083307251 0.032777041 0.062430855
0.54158378 -0.10264176 0.99288481 -0.069454983 -0.0068246946 0.040239841 0.080559395
0.54786605 -0.10234309 0.991817 -0.095436335 -0.014157832 0.044891089 0.1064131
0.55218023 -0.10203481 0.99124944 -0.096359223 -0.0087276474 0.040442765 0.10486606
0.55693281 -0.10044646 0.99015343 -0.082229927 0.01605849 0.032482713 0.089859679
0.53298408 -0.09789145 0.99291736 -0.027891129 0.00046362728 0.02024731 0.034468591
0.53724599 -0.097616345 0.99258506 -0.054485604 0.017683454 0.039672554 0.069679961
0.5422495 -0.097252607 0.99213386 -0.084451243 0.014138944 0.05156976 0.099956803
0.54864597 -0.097697355 0.99159873 -0.086748168 0.025138699 0.048312962 0.10242725
0.55263299 -0.097807772 0.99194229 -0.088344812 0.033128642 0.047042549 0.10542919
0.55809009 -0.097323827 0.99072975 -0.072078615 0.040552832 0.035397947 0.089960404
0.56215143 -0.09848363 0.99000841 -0.056929775 0.038245961 0.023768455 0.072585754
0.53366596 -0.093998075 0.99338847 -0.045237541 0.0093462467 0.033589482 0.057114277
0.53784144 -0.092562258 0.99251157 -0.048202023 0.02318272 0.038644075 0.065986648
0.54290795 -0.092289321 0.99240285 -0.075560808 0.038138062 0.054117769 0.10046233
0.54875797 -0.092181608 0.99164808 -0.081332132 0.052883498 0.05506295 0.11155048
0.55351573 -0.092340089 0.99227285 -0.075529858 0.051289052 0.048719466 0.10348388
0.55808538 -0.092275374 0.99116826 -0.046320267 0.066251293 0.040097505 0.090236418
0.56096423 -0.090468794 0.99057591 -0.029016912 0.075441882 0.038200676 0.089402184
0.53872871 -0.088217646 0.99330616 -0.046163186 0.033702731 0.041394979 0.070572361
0.5433926 -0.087546371 0.99251604 -0.067139581 0.044754043 0.053938359 0.097056657
0.54807001 -0.087343886 0.99249071 -0.063763112 0.069031149 0.058161587 0.11051608
0.55289602 -0.087474905 0.99232781 -0.053040609 0.070110843 0.051867902 0.10207407
0.55713844 -0.087552279 0.99185848 -0.04489892 0.074110597 0.047033429 0.098592281
0.56141317 -0.087614298 0.99129117 -0.040678285 0.067240909 0.040355355 0.088343747
0.56632948 -0.086784974 0.99036783 -0.022864059 0.067260087 0.034546226 0.078994475
0.57068008 -0.085384466 0.99015146 -0.017542318 0.083301142 0.03990531 0.094017267
0.59588522 -0.085010909 0.99028122 0.13881543 0.52948707 -0.82021272 0.98609084
0.5395214 -0.084710434 0.99358934 -0.034480602 0.027242959 0.033386379 0.055188231
0.54382497 -0.083551235 0.99327755 -0.054762065 0.045229197 0.049252272 0.08643119
0.54760784 -0.083031341 0.99300241 -0.045995623 0.074400321 0.056450993 0.10410437
0.55167681 -0.082574204 0.99260527 -0.048777297 0.073439211 0.055374801 0.10411009
0.5567404 -0.082272522 0.99274218 -0.0393207 0.078073561 0.052354813 0.10189517
0.56183404 -0.08218132 0.99223316 -0.027576797 0.081631824 0.049182177 0.099212505
0.56720304 -0.08170002 0.99161649 -0.017817654 0.068657726 0.040265888 0.081564046
0.57219601 -0.082009561 0.99082083 -0.020245146 0.072767228 0.040175676 0.085551269
0.57719326 -0.081264362 0.99135983 -0.013128888 0.046580806 0.026394278 0.055125289
0.58217239 -0.08198335 0.99119884 -0.0014566779 0.039558038 0.021012396 0.04481608
0.58694732 -0.081721015 0.99065113 0.0080290418 0.012957424 0.0069488883 0.016752534
0.59271181 -0.082303412 0.99085236 0.10832976 0.58599865 -0.782965 0.98395324
0.59662807 -0.083997689 0.9903965 0.14880574 0.56338835 -0.78229845 0.97546935
0.54758334 -0.079862393 0.99394792 -0.041134596 0.037644729 0.039841235 0.068531044
0.55201519 -0.078779466 0.99282265 -0.03920339 0.050029844 0.04429397 0.077471584
0.55708092 -0.078207895 0.99289292 -0.037965037 0.032763824 0.033012599 0.060038686
0.5625838 -0.077641204 0.99288338 -0.028666928 0.026076913 0.024750501 0.04598245
0.56722677 -0.077603795 0.99242997 -0.022854559 0.021088481 0.018515885 0.036192443
0.57216173 -0.077651493 0.99239427 -0.034252089 0.022057801 0.019018829 0.044960737
0.57724023 -0.07791207 0.99218184 -0.027387762 0.006582588 0.0068246424 0.02898268
0.58195126 -0.07854493 0.99193448 -0.029586997 0.00067314506 0.0013029277 0.02962332
0.58635402 -0.079233363 0.99187022 -0.041090194 -0.059543937 -0.04300794 0.084163934
0.57103461 -0.07498908 0.99426812 -0.033236902 0.014983326 0.015746564 0.039713297
0.54631656 -0.13207552 0.99524933 0.049496844 0.22075933 -0.16138309 0.27790129
