# .PCD v0.7 - Point Cloud Data file format
VERSION 0.7
FIELDS x y z normal_x normal_y normal_z curvature
SIZE 4 4 4 4 4 4 4
TYPE F F F F F F F
COUNT 1 1 1 1 1 1 1
WIDTH 579
HEIGHT 1
VIEWPOINT 0 0 0 1 0 0 0
POINTS 579
DATA ascii
-0.13378744 -0.22071958 1.0159547 0.060231291 0.043935329 -0.096702799 0.12210467
-0.12896371 -0.22210822 1.0148807 0.085737012 0.041079879 -0.10380261 0.14075999
-0.12390497 -0.22361986 1.0144039 0.11944794 0.038446516 -0.110487 0.16719247
-0.11967716 -0.22439803 1.0138097 0.15318735 0.040334672 -0.11662342 0.19670859
-0.11520264 -0.22533832 1.0121199 0.15975371 0.054291964 -0.11377341 0.20350248
-0.099473372 -0.22428054 1.0132869 -0.090462416 0.019948423 -0.12114909 0.15250735
-0.095430322 -0.22346146 1.0142491 0.72404873 -0.49111861 -0.43250376 0.97596288
-0.091947027 -0.22249055 1.014712 0.8043462 -0.40714434 -0.36361098 0.97208655
-0.14489277 -0.21582618 1.0158273 0.031329915 0.057792574 -0.10355157 0.12265591
-0.14043887 -0.21702068 1.0148654 0.041202322 0.061911345 -0.11311132 0.13536918
-0.13542187 -0.21828081 1.0139939 0.054048322 0.061385512 -0.11601572 0.14194734
-0.13064714 -0.21942337 1.0141716 0.078421421 0.05469346 -0.11568883 0.15008397
-0.093994468 -0.21807761 1.0140707 0.78475308 -0.39517009 -0.41854796 0.97323132
-0.091357298 -0.21720101 1.0148435 0.82974434 -0.34918526 -0.36736345 0.97229725
-0.16023561 -0.20991082 1.0159129 0.030041024 0.055484056 -0.10064089 0.11878356
-0.15645374 -0.21080059 1.0152907 0.032563895 0.059100091 -0.10498296 0.12479844
-0.15104268 -0.21246365 1.0147742 0.033606604 0.062703341 -0.10856546 0.1297982
-0.14597991 -0.21323885 1.0135422 0.037165001 0.070403486 -0.11844598 0.14271419
-0.090350598 -0.21178053 1.0144506 0.82573092 -0.33913183 -0.39823395 0.97746211
-0.087732352 -0.2108186 1.0159075 0.84537667 -0.32531071 -0.38134509 0.98280865
-0.17728651 -0.20372269 1.0165803 0.024147704 0.051445156 -0.094279632 0.11008345
-0.1722825 -0.20446065 1.0153133 0.031349495 0.058368772 -0.10610372 0.12509078
-0.16757014 -0.20566411 1.0147791 0.035372898 0.063808203 -0.11399327 0.13534103
-0.16237545 -0.20769548 1.0149468 0.03113319 0.063481152 -0.1100177 0.13077855
-0.1581025 -0.20838021 1.0132244 0.033820361 0.073842794 -0.12123643 0.14592753
-0.089548551 -0.20658898 1.0144737 0.83263898 -0.30311263 -0.40984184 0.97628647
-0.086954311 -0.2057876 1.0149237 0.84574974 -0.30161619 -0.39610678 0.98140997
-0.18865573 -0.19885814 1.0160607 0.02548486 0.059429854 -0.10871606 0.12649335
-0.18403105 -0.19961484 1.0149446 0.027131587 0.066757053 -0.11708643 0.13748403
-0.17883267 -0.20100637 1.0150436 0.025035992 0.068752587 -0.11632483 0.13742338
-0.1739196 -0.20234933 1.0143949 0.032833621 0.069290966 -0.11966181 0.1421205
-0.16947325 -0.20297796 1.0126839 0.036667451 0.080365062 -0.13191332 0.15875821
-0.089037448 -0.20126078 1.0147797 0.83244121 -0.27765593 -0.43747869 0.98052984
-0.086443111 -0.20052516 1.0148296 0.85029399 -0.26921016 -0.410952 0.98201603
-0.20509565 -0.1934593 1.0171683 0.023374841 0.047308624 -0.089266434 0.1036966
-0.20033191 -0.19329627 1.0151469 0.033117279 0.063348621 -0.11583517 0.13611609
-0.19730738 -0.19368781 1.0137588 0.038697168 0.072108775 -0.12944326 0.15314275
-0.18929362 -0.19658332 1.0139022 0.033460841 0.075981826 -0.13102779 0.15511656
-0.18518764 -0.19694196 1.0131723 0.029018924 0.085245252 -0.1380678 0.164838
-0.088590123 -0.19595572 1.0142927 0.83207417 -0.2234012 -0.46744496 0.98018378
-0.085507475 -0.19517374 1.0148637 0.85138428 -0.22466922 -0.43384248 0.98160619
-0.081658371 -0.19465068 1.016075 0.065690875 -0.023050942 0.17356391 0.18700553
-0.22004443 -0.18864046 1.0173753 0.018127874 0.044934839 -0.081472129 0.094791703
-0.2163166 -0.18804269 1.0159521 0.021041244 0.057184696 -0.098880306 0.11614706
-0.21154355 -0.18889783 1.014922 0.028965592 0.062289089 -0.11014716 0.12981269
-0.20653674 -0.19041048 1.0147272 0.029816642 0.065317214 -0.11480051 0.13540506
-0.20169297 -0.1914922 1.0136912 0.033548206 0.076169848 -0.12969831 0.15410703
-0.19698876 -0.19236055 1.0137403 0.041090623 0.08122316 -0.13860422 0.16582151
-0.088289864 -0.19225484 1.0152371 0.82880014 -0.20023184 -0.48867756 0.98275542
-0.084859088 -0.19055629 1.014492 0.85216439 -0.18957071 -0.43935263 0.97731876
-0.081062652 -0.18968564 1.0138192 0.066842228 -0.055453368 0.16847339 0.18954219
-0.2383901 -0.18162794 1.017205 0.02325052 0.039872855 -0.077181742 0.089930266
-0.23223372 -0.18253079 1.0156071 0.0225778 0.050779134 -0.090835854 0.10648675
-0.22773783 -0.18329521 1.0155449 0.022351503 0.057325363 -0.09893316 0.11650561
-0.22283114 -0.18445387 1.0147814 0.026486471 0.062506825 -0.10709064 0.12679528
-0.21775924 -0.18537474 1.0138817 0.026340425 0.071314961 -0.11839072 0.14069828
-0.21298248 -0.18635337 1.0134077 0.03085506 0.077786565 -0.12581176 0.15110058
-0.083656937 -0.18346092 1.0143329 0.074124396 -0.061301962 0.13853994 0.16865845
-0.081102587 -0.18403284 1.0142967 0.063747495 -0.074086137 0.14708389 0.17659606
-0.23342538 -0.18073674 1.0154852 0.027953699 0.055036664 -0.09883295 0.11652637
-0.22894959 -0.18067138 1.0130693 0.024934448 0.072476655 -0.11570787 0.13879086
-0.083318554 -0.18005528 1.0150199 0.080514908 -0.07063134 0.14991359 0.18424311
-0.080652438 -0.17867905 1.0155032 0.065405279 -0.076237448 0.13012531 0.16438551
-0.079209112 -0.17342938 1.0151484 0.070109993 -0.066121578 0.11784211 0.15223086
-0.076468632 -0.17181922 1.0165744 0.057511628 -0.083077364 0.11346763 0.15193531
-0.07835637 -0.16809343 1.0149937 0.067263991 -0.079632528 0.10239497 0.14611815
-0.07640902 -0.1675825 1.0156626 0.060858995 -0.094833821 0.10748231 0.15572321
-0.089295715 -0.15403724 1.0120578 0.1633822 -0.010068551 0.057899922 0.17363042
-0.08605659 -0.15599427 1.0123619 0.11175959 -0.0087073818 0.053044945 0.12401528
-0.079314679 -0.1557155 1.0127966 0.65563762 0.094913587 -0.74852443 0.99957901
-0.075200327 -0.1564734 1.0145266 0.090551287 -0.068746679 0.11677383 0.16297781
-0.08926408 -0.15092209 1.0123358 0.15454271 -0.017792761 0.050316721 0.16349864
-0.084682569 -0.15095502 1.0128036 0.089104414 -0.025890388 0.042102426 0.10189466
-0.079478629 -0.1510208 1.0131403 0.62109101 0.18531698 -0.76022035 0.99901521
-0.074200429 -0.1510299 1.0142984 0.067305744 0.0078623518 0.079256684 0.10427608
-0.070289992 -0.1497747 1.0146067 0.090471119 -0.067532457 0.11990105 0.16468734
-0.08489044 -0.14583296 1.0131907 0.11844033 -0.069456667 0.034032673 0.14145869
-0.07959868 -0.14520222 1.0136832 0.54329336 0.31521705 -0.7684105 0.99246371
-0.073950879 -0.1458392 1.0146556 0.055749297 0.041328207 0.0768525 0.10354859
-0.069812328 -0.14620996 1.0148296 0.094549239 0.00029931217 0.13515639 0.16494514
-0.084691048 -0.14006977 1.0137411 0.11579198 -0.058741659 0.030117542 0.13328703
-0.079779461 -0.14074062 1.0147992 -0.061968282 0.13690628 0.028762341 0.15300547
-0.074925095 -0.14171578 1.0147002 0.0019448102 0.12602037 0.070346475 0.14433829
-0.070766687 -0.1423133 1.0157951 0.04605636 0.13953087 0.16596955 0.22166629
-0.086029448 -0.13689904 1.0142553 0.12816115 -0.03774704 0.034357011 0.13795117
-0.082416244 -0.13725463 1.0145904 0.10719539 -0.080383196 0.017216861 0.13508786
-0.09386725 -0.24402729 1.0227381 0.40278026 0.049387634 -0.026928008 0.40668932
-0.092643738 -0.24363193 1.0224349 0.75036281 -0.42581534 -0.28145996 0.90751463
-0.10088147 -0.23796871 1.0213861 0.21134126 0.039510131 -0.027270004 0.21672525
-0.095669352 -0.23859063 1.0203551 0.07645674 0.054744422 -0.028573632 0.0982804
-0.092727832 -0.23875825 1.0190028 0.74167132 -0.50398409 -0.34286025 0.96001536
-0.11758525 -0.23138033 1.0210385 0.15796332 0.0020983815 -0.068716109 0.17227513
-0.11237959 -0.23265992 1.0208163 0.1557346 0.020118594 -0.063861042 0.16951771
-0.10738949 -0.23430951 1.0202378 0.1799297 0.02898261 -0.055901989 0.19062981
-0.10248403 -0.23534331 1.0194021 0.1994856 0.040605634 -0.032536864 0.20616007
-0.095202677 -0.23371913 1.0201671 -0.12625408 -0.084176123 -0.075981811 0.16970253
-0.092960216 -0.23309276 1.0206898 0.74134183 -0.51121795 -0.36956191 0.9734
-0.12917595 -0.22616041 1.0217474 0.079289645 0.017107904 -0.073980123 0.10978428
-0.12349882 -0.2273045 1.0206132 0.11396678 0.013077945 -0.077896997 0.1386629
-0.11843789 -0.22879814 1.0199394 0.15539616 0.011353791 -0.081300139 0.1757458
-0.11367773 -0.23027295 1.0191472 0.16778219 0.02038002 -0.074602976 0.18474796
-0.094789468 -0.22864871 1.0196998 0.7063024 -0.5611915 -0.39341572 0.98416203
-0.092185177 -0.22765575 1.020469 0.79244685 -0.45870727 -0.34895462 0.97987431
-0.14320749 -0.2208427 1.022218 0.021608606 0.028423041 -0.061041251 0.070716582
-0.13952908 -0.22096021 1.0210552 0.033702537 0.034235924 -0.075957119 0.089874603
-0.13448933 -0.2225385 1.0203568 0.060103908 0.030694395 -0.084670424 0.10827607
-0.12943842 -0.22398838 1.0196476 0.082277231 0.025306016 -0.084850267 0.12086979
-0.12448178 -0.22482435 1.0189672 0.11570095 0.022031099 -0.091319203 0.14903449
-0.094035551 -0.2236985 1.0196333 0.7871412 -0.4497467 -0.36031303 0.97554541
-0.091431394 -0.22277181 1.020282 0.81734872 -0.41821861 -0.34009528 0.97909683
-0.15515754 -0.21525198 1.022333 0.016470119 0.032090813 -0.06390807 0.073384784
-0.15064646 -0.2158422 1.0205439 0.020037949 0.040978342 -0.077990636 0.090350889
-0.14574063 -0.21702118 1.0200748 0.022889316 0.046066284 -0.086949706 0.10102611
-0.14093171 -0.21864516 1.0198386 0.033821344 0.043188483 -0.088322073 0.10397075
-0.1361181 -0.21976307 1.018925 0.051655263 0.043264687 -0.096076742 0.11734922
-0.093627714 -0.21840616 1.0179614 0.80089146 -0.40707311 -0.38819158 0.97868705
-0.090293124 -0.21722634 1.0201106 0.84028888 -0.37011093 -0.34539953 0.9810037
-0.087414593 -0.21633497 1.0212075 0.85029328 -0.36457831 -0.34222358 0.98642433
-0.16632971 -0.20985131 1.0216343 0.020226166 0.035612911 -0.071322456 0.082245179
-0.16193236 -0.21091622 1.0206535 0.020982027 0.039267212 -0.075803027 0.087910511
-0.15699589 -0.21251312 1.0200064 0.025194332 0.039260745 -0.07857509 0.091379456
-0.1526995 -0.21332078 1.0187302 0.025891975 0.048929065 -0.091118068 0.10661589
-0.089494839 -0.21199293 1.0202545 0.84420681 -0.35178745 -0.36348611 0.98415536
-0.087166503 -0.21147563 1.020623 0.85438204 -0.33915222 -0.35486752 0.98535466
-0.18298677 -0.20384212 1.01998 0.015357569 0.038184285 -0.072653055 0.083500661
-0.17823628 -0.20470269 1.0214658 0.019934967 0.035439938 -0.070098713 0.081038393
-0.17293176 -0.20627382 1.0203521 0.021600634 0.039361417 -0.077143699 0.08925838
-0.16827936 -0.20785008 1.0195688 0.023988292 0.043657482 -0.08368291 0.097387083
-0.16475514 -0.20789082 1.0181489 0.031645536 0.052453458 -0.098021194 0.11558962
-0.088861085 -0.20616554 1.0195434 0.84980202 -0.31190452 -0.38154903 0.98235816
-0.086617872 -0.20582539 1.0202547 0.86566997 -0.3067534 -0.35637903 0.98513359
-0.19938444 -0.19821973 1.0224309 0.012280375 0.029248267 -0.058467984 0.066518977
-0.1939213 -0.19955254 1.0222683 0.014896035 0.031082809 -0.062674865 0.071527421
-0.18894446 -0.20008874 1.0203558 0.018441856 0.038749069 -0.075556144 0.086892597
-0.18422875 -0.20133241 1.0199399 0.020094976 0.041684061 -0.07979174 0.092239313
-0.17921241 -0.20252262 1.0193583 0.022923365 0.045357078 -0.086179778 0.10004848
-0.1756248 -0.20216501 1.0175896 0.029273137 0.057679832 -0.10369883 0.12221836
-0.088490061 -0.20237117 1.0204561 0.85964048 -0.29144967 -0.37508285 0.9821465
-0.085582636 -0.2007142 1.0202386 0.069186866 0.0097427219 0.16284731 0.17720324
-0.082100943 -0.19910976 1.0223601 0.051475376 0.0046224445 0.13913667 0.14842537
-0.21110106 -0.1928926 1.0214273 0.012256637 0.035107791 -0.067146495 0.07675568
-0.20599234 -0.19344579 1.020111 0.018402278 0.042051733 -0.080734834 0.092871442
-0.20068048 -0.19535373 1.0205419 0.019672379 0.040307999 -0.079447687 0.091234162
-0.19689541 -0.19694121 1.0205629 0.017472208 0.040850669 -0.07912223 0.090743497
-0.18983831 -0.19745329 1.0176119 0.024186745 0.059078485 -0.10732852 0.12487864
-0.088004902 -0.19781771 1.0176165 0.85646904 -0.24641417 -0.40737605 0.97990531
-0.084608749 -0.19539456 1.0203097 0.061519891 -0.014972001 0.16059113 0.17262204
-0.081638478 -0.19424978 1.0197266 0.054211289 -0.025767274 0.15506157 0.16627359
-0.22690189 -0.18789624 1.0222307 0.0057848543 0.027920365 -0.050994426 0.058424678
-0.22228037 -0.18808523 1.0206872 0.010063186 0.036892772 -0.066325217 0.076559648
-0.21726939 -0.18928744 1.0202851 0.013248801 0.041563541 -0.075380087 0.087093145
-0.21199708 -0.19072686 1.0199482 0.018065259 0.040495157 -0.076615438 0.088521957
-0.20638634 -0.19189776 1.0194098 0.020380929 0.047879517 -0.089741111 0.10373668
-0.20320214 -0.19201736 1.0178438 0.024546593 0.055915803 -0.10187832 0.11877838
-0.084105037 -0.1911971 1.0197197 0.060487866 -0.037169024 0.1603418 0.17535624
-0.081633411 -0.19181664 1.0213667 0.04806602 -0.040116951 0.15384135 0.16609296
-0.23894085 -0.18231577 1.021377 0.016142994 0.029126078 -0.058630884 0.067427777
-0.23371804 -0.18356772 1.0207609 0.012105942 0.034380645 -0.064065784 0.073708937
-0.22877899 -0.18465643 1.0197729 0.012780026 0.041607082 -0.073889881 0.085756592
-0.2230514 -0.18596518 1.0193679 0.017050847 0.042984694 -0.077463925 0.090216815
-0.21824329 -0.18669194 1.0187016 0.0206898 0.051662266 -0.09116897 0.10681216
-0.082901686 -0.18347535 1.01877 0.064583987 -0.074615866 0.1645426 0.19186684
-0.080520667 -0.18343075 1.0205008 0.040547132 -0.094097875 0.13654992 0.17071719
-0.24500623 -0.17961358 1.0207053 0.017379627 0.03185457 -0.0634754 0.073115602
-0.2397812 -0.18037553 1.0196034 0.021155894 0.037346452 -0.072551578 0.084297456
-0.23592894 -0.18030068 1.0180553 0.023168862 0.045687824 -0.083655953 0.098094299
-0.082973912 -0.17982167 1.0187076 0.067097187 -0.074608319 0.15033577 0.18074645
-0.080055505 -0.17849289 1.0202032 0.047084272 -0.086565107 0.12315175 0.15772381
-0.076642334 -0.17784703 1.022486 0.009907037 -0.092726581 0.062713265 0.11238026
-0.082617022 -0.17568874 1.0191311 0.064897358 -0.079414949 0.12677926 0.16306865
-0.078979336 -0.17360394 1.0202707 0.052156419 -0.093641326 0.11754276 0.15907636
-0.075435989 -0.17228143 1.0211484 0.044126004 -0.05516994 0.094806984 0.11823363
-0.070817165 -0.17471962 1.0229902 -0.023774326 -0.032940328 -0.027485311 0.0490482
-0.063875727 -0.17526603 1.0228539 -0.69241416 0.12748609 0.65438348 0.96120125
-0.078194931 -0.16762334 1.0196397 0.06091097 -0.079944603 0.10882254 0.14813383
-0.075655095 -0.16785097 1.0205004 0.049891531 -0.088466242 0.10550299 0.14644563
-0.077699713 -0.16385362 1.0208126 0.064942807 -0.072433352 0.11365975 0.14960849
-0.075114489 -0.16222538 1.0205203 0.063697457 -0.072897375 0.11425504 0.14975183
-0.074064337 -0.15665074 1.020376 0.079893023 -0.096315712 0.13717227 0.18567671
-0.070511743 -0.15554012 1.0213122 0.074310273 -0.083670728 0.14870493 0.1861074
-0.073298343 -0.15173878 1.0201575 0.081847459 -0.11425463 0.1251846 0.18821347
-0.07005097 -0.15068655 1.0212022 0.075256437 -0.11631278 0.13985513 0.1968544
-0.072381571 -0.14563487 1.0198203 0.091129065 -0.051585827 0.12653674 0.16424723
-0.069752231 -0.1461017 1.0199136 0.080603123 -0.024146259 0.13507092 0.15913534
-0.079360045 -0.14081369 1.0179678 -0.032825649 0.15506251 0.058681905 0.16901323
-0.073785156 -0.14207411 1.0185815 0.0095953345 0.19707073 0.18451209 0.27013636
-0.070977941 -0.14262527 1.0203687 0.063878059 0.099873044 0.18967849 0.2236805
-0.093524359 -0.24759714 1.0283653 0.23874296 0.05494684 0.024427414 0.24619922
-0.09189719 -0.24775317 1.0268182 0.67616594 -0.13647322 -0.086325973 0.69518161
-0.095176972 -0.24358287 1.0264653 -0.023519307 0.00089672208 -0.028140172 0.036685571
-0.092090629 -0.24481726 1.0260748 -0.10617712 -0.080166608 -0.035455838 0.13768582
-0.1109526 -0.23791468 1.0284034 0.14589125 0.0012784302 -0.029125705 0.14877567
-0.10638796 -0.23795293 1.0264118 0.17663336 0.0095597804 -0.020803288 0.17811096
-0.10197866 -0.23855025 1.0256238 0.1815404 0.025029272 -0.0020491779 0.18326914
-0.096605331 -0.23828283 1.0245621 0.029511958 0.032070845 -0.02763544 0.05160632
-0.092948675 -0.23995934 1.0257814 0.71872139 -0.57157886 -0.35025847 0.98282439
-0.12695985 -0.23134142 1.0278829 0.087630376 -0.006926775 -0.039905518 0.096537627
-0.12257156 -0.23178145 1.0268302 0.11734457 -0.0087794363 -0.045915633 0.12631339
-0.11784899 -0.23289402 1.0262537 0.15388265 -0.0093886256 -0.052501559 0.16286322
-0.11295775 -0.23426959 1.0256572 0.16167744 0.0013131201 -0.039509282 0.16644008
-0.1083035 -0.23548919 1.0247146 0.17063315 0.013222128 -0.029279023 0.1736311
-0.095084816 -0.23462734 1.0257806 -0.10612297 -0.077700913 -0.054358646 0.14231788
-0.092445776 -0.23344058 1.026024 0.76251841 -0.50890869 -0.35154215 0.98183721
-0.13790733 -0.22561896 1.0276706 0.028609186 0.010665298 -0.039005175 0.049534209
-0.13314641 -0.22671384 1.0268894 0.061168171 0.0032659173 -0.044664189 0.075809635
-0.12890054 -0.22764905 1.0260057 0.083394818 0.001388818 -0.05147472 0.098011583
-0.12398805 -0.22907378 1.0253837 0.11381935 -0.00017684698 -0.059613883 0.12848616
-0.11971737 -0.23026435 1.0242821 0.14899524 -0.00093224645 -0.064273715 0.16227002
-0.094228171 -0.22896463 1.0249106 0.74377394 -0.52697647 -0.36866125 0.98326749
-0.09176942 -0.22806172 1.0261387 0.81867015 -0.43354851 -0.32470918 0.98164207
-0.14985362 -0.22022472 1.0276512 0.0080015361 0.014977068 -0.033042625 0.037150398
-0.14486794 -0.22126338 1.0262572 0.010660782 0.022118896 -0.046159282 0.052283622
-0.14023845 -0.22270276 1.0258551 0.027935922 0.017952412 -0.050205499 0.060193829
-0.13543056 -0.22410378 1.0252112 0.048983723 0.014133215 -0.055935487 0.075683102
-0.13088107 -0.22495148 1.0237179 0.075202391 0.015534818 -0.068499625 0.10290252
-0.093822666 -0.22492449 1.0246309 0.79524374 -0.45053345 -0.35167938 0.9793219
-0.090773016 -0.22270453 1.0255305 0.83783156 -0.40251026 -0.3261044 0.98504835
-0.087874427 -0.22028191 1.0274533 0.8554095 -0.38495803 -0.30229583 0.98554593
-0.16113226 -0.21486494 1.0268468 0.011683479 0.017402649 -0.039626315 0.044828571
-0.15646037 -0.21610704 1.0264037 0.012257099 0.020757854 -0.045357093 0.051365271
-0.15161891 -0.21728607 1.0254178 0.010588065 0.024372488 -0.049530774 0.056208745
-0.14589445 -0.21910457 1.0251458 0.015407294 0.025837511 -0.054454029 0.062210955
-0.14236778 -0.21943244 1.0236735 0.024671003 0.031044304 -0.066562474 0.077478833
-0.089614093 -0.2174869 1.0255898 0.84665203 -0.38189465 -0.33241665 0.98649073
-0.087355942 -0.21654621 1.02565 0.8562957 -0.37363052 -0.32061076 0.98774153
-0.17678666 -0.20995438 1.0282578 0.0040002465 0.012273908 -0.025226966 0.028338147
-0.1726229 -0.21010906 1.0267551 0.0090462267 0.017871946 -0.038055986 0.043005798
-0.16765507 -0.2111548 1.0257903 0.015833333 0.021385759 -0.048159987 0.055022079
-0.16271451 -0.21260636 1.0250149 0.017709866 0.023156345 -0.052188054 0.059778329
-0.15752722 -0.21348649 1.0244032 0.016116172 0.030232191 -0.061807126 0.070667088
-0.089046516 -0.21205613 1.0255758 0.85935146 -0.3481319 -0.33671492 0.98643684
-0.086539723 -0.21156861 1.0260589 0.86950004 -0.34108633 -0.32687861 0.98955536
-0.18809195 -0.20419762 1.0269631 0.0074009448 0.013664544 -0.029611588 0.033441588
-0.18387382 -0.20485047 1.0260752 0.010095581 0.016865909 -0.036417112 0.041383397
-0.1787176 -0.20682693 1.0260791 0.010564178 0.019425809 -0.041301072 0.046848077
-0.17346378 -0.20752305 1.0245146 0.013597831 0.027258933 -0.055189326 0.063038185
-0.16989517 -0.20893374 1.0251899 0.013417751 0.027243048 -0.055345878 0.063129909
-0.08869759 -0.20806652 1.0244969 0.86185789 -0.3303467 -0.34749538 0.98624593
-0.085834436 -0.20620379 1.0259793 0.061122537 0.056351855 0.11319492 0.14044425
-0.20035018 -0.19920415 1.0271071 0.010175243 0.014189094 -0.0327501 0.037113812
-0.1953565 -0.2002167 1.0256804 0.01262778 0.019075483 -0.042471781 0.04824093
-0.18997158 -0.20185931 1.0254585 0.011358991 0.020864934 -0.044345945 0.050308399
-0.18549889 -0.20254472 1.0244199 0.013212726 0.026065528 -0.052834123 0.060377415
-0.18054858 -0.2034416 1.0239282 0.015852109 0.03102231 -0.061670169 0.070829958
-0.088309191 -0.20140682 1.0233164 0.87357318 -0.28500926 -0.3526026 0.98421997
-0.084744662 -0.20035402 1.0252694 0.054093629 0.017379776 0.1342181 0.14574867
-0.081959851 -0.19915363 1.0261766 0.04039517 0.0012719631 0.11628065 0.12310392
-0.22140959 -0.19280457 1.0276358 -2.8789043e-05 0.014117479 -0.026345819 0.029889902
-0.21636996 -0.19303796 1.0255742 0.0046656281 0.019930094 -0.03895168 0.044002388
-0.21120451 -0.19438729 1.0264819 0.0051162988 0.018431872 -0.036616415 0.04131189
-0.20621063 -0.19572219 1.0255101 0.0078755319 0.023667961 -0.047141254 0.0533338
-0.20163442 -0.19669756 1.0246881 0.012695864 0.027280718 -0.055716708 0.063322783
-0.084030092 -0.19569841 1.0258441 0.043833584 -0.014414206 0.1292277 0.13721862
-0.081673734 -0.19517577 1.0260649 0.037927419 -0.017760538 0.12063227 0.12769523
-0.23751664 -0.18777178 1.0285 0.0056138337 0.01051712 -0.023738071 0.026563527
-0.23353231 -0.18749137 1.0265437 0.0074018538 0.015984803 -0.034150183 0.038425725
-0.22823225 -0.18861018 1.0263294 0.0043768138 0.018407643 -0.036091715 0.040750578
-0.22290327 -0.18992867 1.0256147 0.0034318268 0.022804469 -0.04296577 0.048763499
-0.21789558 -0.19131364 1.0254617 0.0060607642 0.023858875 -0.046067432 0.052232049
-0.21286371 -0.19176704 1.0238723 0.0089267194 0.030334711 -0.057555705 0.065669939
-0.08417204 -0.19133176 1.0251878 0.047767311 -0.032824308 0.14580375 0.15690088
-0.080616355 -0.18980934 1.0269039 0.030542672 -0.049321584 0.12385529 0.13676845
-0.2491245 -0.18196069 1.0275071 0.00730443 0.013236105 -0.029495582 0.03314421
-0.24437766 -0.18319128 1.0264163 0.0081244856 0.017364562 -0.037354887 0.041987173
-0.23953325 -0.18396798 1.025463 0.011710376 0.018163025 -0.040017053 0.045479588
-0.23415384 -0.18523753 1.0253648 0.012557775 0.020892262 -0.044685736 0.05090186
-0.22841416 -0.18662924 1.024273 0.0067157298 0.026053846 -0.049351871 0.056209527
-0.22539665 -0.18614839 1.0234841 0.010409325 0.031952918 -0.059471786 0.068309858
-0.082593225 -0.1829609 1.0245434 0.049515247 -0.070137404 0.15299886 0.17544135
-0.079853028 -0.18378374 1.0256865 0.018594682 -0.10099456 0.11517271 0.15430625
-0.076755539 -0.18176089 1.0276383 -0.020025641 -0.12187438 0.050156578 0.13330445
-0.061517622 -0.18182623 1.0277729 -0.42942142 0.46558443 0.54346716 0.83458263
-0.058842659 -0.18228188 1.0271134 -0.403074 0.49806672 0.49650711 0.8105914
-0.25011176 -0.18007892 1.0260544 0.010887802 0.018450409 -0.040452167 0.045774881
-0.24617688 -0.18027252 1.0245144 0.013464957 0.023431212 -0.049397886 0.056306995
-0.079066783 -0.17902347 1.0255876 0.019089013 -0.10251889 0.099539503 0.14416181
-0.075239614 -0.17742854 1.0266385 0.0046165586 -0.087329224 0.057968318 0.10491917
-0.068235748 -0.17704843 1.0261334 -0.76151848 0.16134515 0.59567946 0.98019218
-0.062993377 -0.17830418 1.0263567 -0.52739424 0.32219821 0.64112735 0.89050585
-0.059349742 -0.17937779 1.0274184 -0.37240344 0.48168629 0.51079082 0.79474097
-0.07852035 -0.1733762 1.0251764 0.038639426 -0.082573056 0.10957785 0.14254339
-0.074339949 -0.17297776 1.0255336 0.016372532 -0.02090814 0.035902098 0.044656139
-0.068910837 -0.17397331 1.0263003 -0.051122099 0.048633583 -0.086211905 0.11140551
-0.064216778 -0.17414591 1.0262666 -0.095747203 0.15731989 -0.13603011 0.22895689
-0.077651121 -0.16846806 1.0250787 0.051485479 -0.064814381 0.11039244 0.13797879
-0.074791789 -0.16796887 1.0260707 0.051942825 -0.044141345 0.11534975 0.13398537
-0.0690386 -0.17025171 1.028061 0.0026683807 0.056834966 -0.00494349 0.057111923
-0.077448577 -0.1640389 1.0247978 0.066153795 -0.068576403 0.1323356 0.1630698
-0.074038029 -0.16197127 1.0255177 0.069362462 -0.05674611 0.14699635 0.17216039
-0.071100354 -0.1612107 1.0275719 0.060697347 -0.019588487 0.13483268 0.14915673
-0.073370278 -0.15710615 1.0258927 0.072988331 -0.083779693 0.15551661 0.19113281
-0.070270829 -0.15571658 1.0256292 0.066288412 -0.075256981 0.14872599 0.17938001
-0.072873183 -0.15116018 1.0255314 0.06955713 -0.14160338 0.1395697 0.21064048
-0.069107607 -0.15121907 1.0259206 0.063019365 -0.11953892 0.14134681 0.19555029
-0.072429724 -0.14677501 1.0251685 0.087498486 -0.10879541 0.15777037 0.2106749
-0.069880046 -0.14661637 1.0252993 0.077986568 -0.095252588 0.1487357 0.19307323
-0.094076715 -0.24860787 1.0331237 0.035409808 0.0049311519 0.024540737 0.043363791
-0.091851287 -0.24857301 1.0321605 0.68029034 -0.61094463 -0.36348361 0.98395562
-0.095797159 -0.24464589 1.0311583 0.091562256 0.028416902 0.020804882 0.098102041
-0.09245564 -0.24518086 1.0307639 0.69506061 -0.5746038 -0.39092207 0.9829033
-0.11620668 -0.23732053 1.0332984 0.17314829 -0.020430297 -0.035779208 0.17798281
-0.11220594 -0.23783542 1.0319248 0.14551051 -0.002356708 -0.029212236 0.14843254
-0.10748097 -0.23836726 1.030454 0.18214856 0.0011366606 -0.010552093 0.18245749
-0.094657697 -0.2401035 1.0317605 -0.11045393 -0.099678546 -0.025561169 0.15096112
-0.09227927 -0.23918912 1.031865 0.73965102 -0.54018408 -0.37037343 0.98795694
-0.13328476 -0.23101421 1.0329593 0.050966799 -0.0069911182 -0.02162163 0.055803094
-0.12794669 -0.23168764 1.0323628 0.079606242 -0.01026386 -0.03109099 0.086076424
-0.12316754 -0.23284934 1.0315999 0.11201151 -0.013410181 -0.036634907 0.11861083
-0.11863866 -0.23427244 1.0310309 0.15470842 -0.018821836 -0.037303969 0.1602515
-0.11424197 -0.23521942 1.0293792 0.16782495 -0.012658745 -0.032273903 0.17136821
-0.10983273 -0.23643634 1.0299026 0.16442794 0.0069706142 -0.027538434 0.16686372
-0.094857693 -0.23284326 1.0300852 0.7192378 -0.56227833 -0.3766461 0.98758399
-0.09224847 -0.23207542 1.0301834 0.78756785 -0.49200678 -0.32589483 0.98414493
-0.13928685 -0.22673027 1.032334 0.023175314 0.0012500882 -0.020018265 0.030649452
-0.13448854 -0.22786489 1.031267 0.050386891 -0.0052836537 -0.024473622 0.056264676
-0.12982613 -0.22960332 1.0306954 0.071420036 -0.0064113438 -0.03390944 0.079320721
-0.12505293 -0.22994544 1.0293313 0.10287205 -0.0046815574 -0.049263075 0.11415528
-0.09416946 -0.23041487 1.0322037 0.77668506 -0.51290059 -0.31964719 0.98411435
-0.091001987 -0.22859085 1.0315249 0.83181179 -0.43218476 -0.29584205 0.98296338
-0.087507747 -0.22758518 1.0329121 0.86407614 -0.38722691 -0.27165291 0.98507237
-0.15557928 -0.22060078 1.0322027 0.0057029724 0.0051599741 -0.01424697 0.016190287
-0.15085265 -0.22170717 1.0321702 0.0076095313 0.0060783029 -0.017426416 0.019963235
-0.14559719 -0.22287676 1.030974 0.0063262135 0.0083871186 -0.020379916 0.022928273
-0.14114985 -0.22407426 1.0300626 0.0187639 0.0075747669 -0.027801767 0.034386031
-0.137438 -0.22444768 1.0290745 0.032001138 0.0091656744 -0.038556322 0.050937928
-0.090029433 -0.22291303 1.0310639 0.84945983 -0.40020555 -0.29340577 0.98378521
-0.087441862 -0.22198959 1.0323186 0.86311454 -0.38788968 -0.28303286 0.98769057
-0.1707641 -0.21505016 1.0329909 0.0029472113 0.0037376881 -0.0094809234 0.010608689
-0.16690247 -0.21531823 1.0320158 0.0083093047 0.0055422783 -0.016985014 0.019704113
-0.16217728 -0.21617647 1.0314291 0.0087500513 0.0082955956 -0.022310391 0.025360083
-0.15668502 -0.21819827 1.0314738 0.0066331476 0.0095642209 -0.023013964 0.025789835
-0.15155341 -0.21932442 1.030109 0.0065575391 0.012713403 -0.028063655 0.031499218
-0.089130871 -0.21780039 1.0310236 0.85682297 -0.38391757 -0.30360675 0.98677015
-0.086882956 -0.21680591 1.0311697 0.86745429 -0.37391341 -0.29395747 0.98929226
-0.18327661 -0.20933206 1.0333033 0.0023919046 0.0034921467 -0.0085444748 0.0095354263
-0.17830724 -0.21051595 1.0319196 0.0019889325 0.0066304803 -0.014115602 0.015721621
-0.17309375 -0.21151115 1.0310653 0.0070139617 0.0074073076 -0.019110546 0.021662798
-0.16829193 -0.21306244 1.0305825 0.0096917003 0.0094243586 -0.024766758 0.028215952
-0.16347371 -0.21402112 1.0295845 0.0093591511 0.013783753 -0.032263309 0.036311246
-0.088732675 -0.21275267 1.0306828 0.86840844 -0.36489826 -0.29833645 0.98807317
-0.086066067 -0.21160842 1.0313267 0.059109211 0.080607876 0.083522268 0.13025935
-0.19450727 -0.2038881 1.0321226 0.0051779449 0.001442641 -0.0065654218 0.0084851095
-0.18950909 -0.20566753 1.0314871 0.0040268302 0.0057204366 -0.013834283 0.015502457
-0.18451113 -0.20703186 1.0309507 0.0040911734 0.0086140037 -0.019251168 0.021483626
-0.17948909 -0.20781231 1.0304003 0.0057010353 0.010638773 -0.023790717 0.026677398
-0.17474999 -0.20866193 1.0287005 0.0069880635 0.015046537 -0.03187789 0.03593649
-0.088195212 -0.20819697 1.0294735 0.88158071 -0.32461321 -0.30951661 0.98912024
-0.08493533 -0.20634204 1.0313456 0.050175667 0.058766559 0.088646919 0.11759839
-0.082107157 -0.20574521 1.0316057 0.039361477 0.044904917 0.0765789 0.097108729
-0.21063915 -0.198815 1.0334646 -0.0033128262 0.0019518733 -0.0014042705 0.0040934831
-0.20573932 -0.1993542 1.0316615 0.002329424 0.0035552084 -0.0085098147 0.0095122382
-0.20062503 -0.20086424 1.0314662 0.0041996986 0.0041160583 -0.010839581 0.012331908
-0.19574651 -0.20186874 1.0300821 0.0061111003 0.0082864463 -0.019710779 0.02223793
-0.18954071 -0.20336401 1.029691 0.0083014071 0.0085069835 -0.021304101 0.02439563
-0.084093057 -0.20121498 1.0308857 0.038462222 0.029954493 0.084738113 0.097760737
-0.081640199 -0.20039465 1.0320196 0.027918369 0.017779633 0.068291754 0.075890146
-0.23180756 -0.19273487 1.0338748 -0.00092813373 0.0032742321 -0.0059409589 0.0068466798
-0.22698946 -0.19274838 1.0310073 -0.0029149801 0.0075485408 -0.012772158 0.015119709
-0.22228548 -0.19345155 1.0322473 -0.0026125461 0.0060980916 -0.010064363 0.012054192
-0.21704404 -0.19480975 1.0315851 -0.002486676 0.0072668791 -0.012254328 0.014462353
-0.21234278 -0.19604075 1.0304934 0.0019172728 0.0073516965 -0.015326023 0.017105859
-0.20748428 -0.19727787 1.0305346 0.0029943138 0.0076913834 -0.016522437 0.018469278
-0.20167917 -0.19790667 1.0291456 0.0092625916 0.011149168 -0.026698247 0.030379202
-0.083606429 -0.19531453 1.0306982 0.033486515 -0.0055931956 0.09718354 0.10294305
-0.081203617 -0.19462778 1.030952 0.028337568 -0.012983501 0.092031725 0.097167008
-0.24362846 -0.18741687 1.0324533 0.0069232136 0.0022305846 -0.0093548745 0.011849898
-0.23864521 -0.18805732 1.0318388 0.0043489039 0.0044252574 -0.011762053 0.013298186
-0.23340036 -0.18903808 1.0314513 0.0041806549 0.006274879 -0.015080094 0.016860047
-0.22832546 -0.1906223 1.031052 -0.00026226044 0.0084883869 -0.01620695 0.018297177
-0.22323456 -0.19151023 1.0300782 -0.0021241754 0.012265295 -0.021980777 0.025260724
-0.21970786 -0.19110571 1.0287451 -0.0018814951 0.016219527 -0.028735444 0.033050548
-0.082894631 -0.19127439 1.0300416 0.035519361 -0.015491627 0.10984318 0.11647807
-0.080092341 -0.18999282 1.0316212 0.027237386 -0.024674907 0.099837385 0.10638717
-0.057319682 -0.1870164 1.0336816 -0.44464388 0.54213697 0.45023039 0.83326352
-0.2600342 -0.18179664 1.0338279 -0.0029518753 0.0032200217 -0.0044884235 0.00626323
-0.25536963 -0.18266334 1.0322821 0.0027252287 0.0041270256 -0.010115683 0.01125994
-0.25019866 -0.18334216 1.0315452 0.0040592253 0.0055851042 -0.013828546 0.01545637
-0.24524823 -0.18459307 1.0310425 0.0057214648 0.0063686073 -0.016369253 0.018472865
-0.23974569 -0.18599029 1.0305967 0.0094221681 0.0069383979 -0.019926533 0.023108123
-0.23577681 -0.18664408 1.0288656 0.0087473691 0.01145193 -0.027375579 0.030936798
-0.079131991 -0.18460478 1.0312719 -0.0065438449 -0.11201622 0.093032539 0.14575839
-0.0764025 -0.18354018 1.0322516 -0.80918777 0.38918692 0.40222597 0.98388875
-0.061155584 -0.18236457 1.032328 -0.38652816 0.51533967 0.47002184 0.79743308
-0.058300775 -0.18320371 1.0312074 -0.39768547 0.5102818 0.48148248 0.80645311
-0.26124594 -0.17976955 1.0321116 -0.0045573562 0.0067404807 -0.010339916 0.013157411
-0.25624877 -0.1801955 1.0301597 0.0029285401 0.0097745657 -0.020970523 0.023321263
-0.25151527 -0.18105897 1.0299157 0.0054183155 0.010069638 -0.02287969 0.025578037
-0.078407735 -0.17874937 1.030517 0.0040853024 -0.11035651 0.090136826 0.14254788
-0.07586439 -0.17829263 1.0316157 -0.016588271 -0.11497066 0.049875975 0.12641612
-0.068947293 -0.17687638 1.0297439 -0.065698951 0.058390439 -0.11294854 0.14311942
-0.062549613 -0.17886335 1.030211 -0.38989633 0.39318252 0.59744281 0.81458551
-0.058610544 -0.1795315 1.0315489 -0.28448391 0.50887358 0.43375617 0.72665524
-0.07772164 -0.1735743 1.0308976 0.033730567 -0.072680846 0.12087031 0.14501686
-0.07479497 -0.17373009 1.030322 0.015599966 -0.039080076 0.049417838 0.064905576
-0.068872698 -0.17359035 1.029166 -0.0098890066 0.088754855 -0.032463938 0.095021702
-0.06308037 -0.17482395 1.0297619 -0.092806339 0.23378846 -0.12858181 0.28249487
-0.059760928 -0.17564809 1.0302151 -0.081509829 0.41288665 0.060331427 0.42515773
-0.077982061 -0.1688246 1.0303463 0.050740004 -0.060702682 0.14097005 0.1616537
-0.07428287 -0.16691986 1.0306357 0.044851124 -0.017864667 0.10696645 0.11735668
-0.070645347 -0.16914836 1.02934 0.022773296 0.047010135 0.037118524 0.064080887
-0.07319136 -0.1626537 1.0311906 0.058086812 -0.024449527 0.14518006 0.15826909
-0.070853256 -0.16141354 1.0316873 0.050669044 -0.0041704141 0.12349217 0.13354798
-0.072805986 -0.15688589 1.0305281 0.059078008 -0.076008067 0.14756009 0.17618576
-0.069440387 -0.1561822 1.0313714 0.048541307 -0.06223651 0.13192075 0.15372939
-0.072204404 -0.15122959 1.0306656 0.051202744 -0.13636103 0.12337175 0.19088385
-0.068943873 -0.15164185 1.0312558 0.040665716 -0.14971159 0.12667066 0.20028161
-0.065958619 -0.15246546 1.0296127 0.042076737 -0.12098385 0.12749176 0.18072546
-0.07257428 -0.14718847 1.0305059 0.047676414 -0.17290846 0.10308839 0.20687579
-0.070154883 -0.14685953 1.0302138 0.045466751 -0.15191597 0.094230384 0.18445882
-0.090365529 -0.25396422 1.0392962 0.051673666 0.056578606 -0.032446384 0.08321102
-0.094884202 -0.24920745 1.037541 0.030793741 0.011780143 0.010077894 0.034475937
-0.091840662 -0.25037715 1.0371425 0.67760003 -0.59956098 -0.37903625 0.98096061
-0.095324904 -0.2444302 1.0360713 -0.0019140244 -0.0051877499 0.006138593 0.0082618743
-0.092525445 -0.24397156 1.0362486 -0.11020401 -0.091253102 -0.060163155 0.15521488
-0.12210652 -0.23723307 1.0382208 0.117797 -0.019787908 -0.02526845 0.12209091
-0.11781135 -0.23800555 1.0372111 0.15395522 -0.021279275 -0.032183573 0.1587161
-0.11344046 -0.23830697 1.0359136 0.17765568 -0.013979882 -0.028537273 0.18047537
-0.094621293 -0.24001628 1.0365343 -0.075579256 -0.071237773 -0.011141628 0.1044566
-0.091822252 -0.23912823 1.0369991 0.77147466 -0.49818444 -0.35377795 0.98413396
-0.14047714 -0.23104848 1.0381128 0.0080206543 0.0026426911 -0.011654258 0.014392235
-0.13366532 -0.23185393 1.0378883 0.047599375 -0.0053260028 -0.023060471 0.053158745
-0.12920426 -0.23290329 1.0366573 0.07256031 -0.011475921 -0.024958849 0.077586338
-0.12397952 -0.23436718 1.0362613 0.10984956 -0.019511759 -0.023753673 0.1140696
-0.11903007 -0.23557289 1.0359265 0.15470199 -0.021301687 -0.032072112 0.1594211
-0.093664639 -0.23609236 1.0355307 0.74616039 -0.53215683 -0.36207864 0.98541725
-0.09072385 -0.23437084 1.0371454 0.82055771 -0.44509107 -0.30931962 0.98341227
-0.087682948 -0.23125252 1.038792 0.86105359 -0.38667831 -0.28111359 0.98486459
-0.14889035 -0.2267503 1.0393064 0.0036451519 -0.00029218197 -0.0024389625 0.0043955706
-0.14513375 -0.2267333 1.0376562 -0.00011190772 0.0026552677 -0.005161345 0.0058053811
-0.14056753 -0.22801788 1.0365812 0.014417619 -0.00045126677 -0.010532051 0.017860444
-0.13522229 -0.22951132 1.0355181 0.042542666 -0.0053289831 -0.01992777 0.047279939
-0.13104533 -0.22999611 1.035725 0.063376352 -0.0073176622 -0.027403891 0.069434024
-0.093877748 -0.22908464 1.0353541 0.79663587 -0.49180192 -0.30638933 0.98507476
-0.090877593 -0.22719672 1.036095 0.83961284 -0.42973709 -0.28928906 0.98656571
-0.087554328 -0.22616974 1.0352123 0.8595469 -0.39327061 -0.28056285 0.98600107
-0.16087109 -0.22075836 1.0379827 0.0017984211 0.0012311339 -0.0038869232 0.0044562519
-0.1563378 -0.22186565 1.0372022 0.0053897947 0.00044450164 -0.0053170621 0.0075841029
-0.15169948 -0.22314075 1.0366176 0.0057761669 0.0011172593 -0.0069903433 0.0091365892
-0.14620984 -0.22418785 1.0351698 0.0017426312 0.0034791827 -0.0081404299 0.0090226429
-0.14234853 -0.225463 1.0365859 0.0097116232 -9.6738338e-05 -0.0077071041 0.012398566
-0.089331999 -0.22339661 1.0366117 0.85595685 -0.39983776 -0.28572574 0.9870013
-0.087107033 -0.22260275 1.0374302 0.86619329 -0.38874251 -0.27664411 0.98891026
-0.1723652 -0.21552168 1.0374341 0.00084517896 0.0014707148 -0.0035780072 0.0039597303
-0.16762182 -0.21657194 1.0368257 0.0022126585 0.00176543 -0.0052632093 0.0059761168
-0.16267715 -0.21861164 1.0368719 0.0046912283 0.00047713518 -0.0047605634 0.0067006154
-0.15835643 -0.21907738 1.0351158 0.0024255812 0.0040169656 -0.009743154 0.010814273
-0.088646606 -0.21783952 1.0360469 0.86781406 -0.3828527 -0.27836829 0.98851722
-0.086281322 -0.21697131 1.0368471 0.87798399 -0.3684262 -0.26977497 0.98963243
-0.18798883 -0.20988722 1.037111 -0.0016573668 0.0014876723 -0.0016822666 0.0027910669
-0.1837956 -0.21081552 1.0372313 0.0005684942 0.00095060468 -0.0023181438 0.0025691683
-0.17885076 -0.21182911 1.036546 -0.0015141964 0.0027764738 -0.0043039024 0.0053408961
-0.17425866 -0.21311438 1.0357707 0.0024945736 0.0019416213 -0.0057472587 0.0065592509
-0.17008749 -0.21361043 1.0345562 0.0037492365 0.0040108263 -0.010658115 0.011989117
-0.088115469 -0.21304049 1.0360787 0.87665915 -0.36489296 -0.27643314 0.98898602
-0.085171238 -0.21197021 1.0366775 0.055024952 0.090096742 0.06535089 0.12416081
-0.082060076 -0.21038899 1.0385299 0.040824175 0.069148332 0.054949284 0.097301222
-0.20440516 -0.20387973 1.0383637 0.0020539016 -0.0025109649 0.0033811331 0.0046856715
-0.20022501 -0.20457396 1.0374247 0.0017200708 -0.0026963353 0.0039835572 0.0051085809
-0.19504471 -0.20661283 1.0376028 -0.00034078956 -0.0011076927 0.0024372786 0.0026987863
-0.18997738 -0.20729671 1.0360926 -0.00061616302 0.0018284321 -0.0031416565 0.0036868451
-0.18495643 -0.20843108 1.0352104 0.001758948 0.002320528 -0.0058757365 0.0065576695
-0.084221557 -0.20647207 1.0367981 0.037147194 0.047894269 0.066628754 0.090073109
-0.081612453 -0.20534141 1.0365715 0.030090839 0.038307637 0.057812691 0.075599208
-0.22106414 -0.19911103 1.039471 0.00044165552 0.0021794438 -0.0046280921 0.0051346151
-0.21676981 -0.198783 1.0374911 -0.0029747635 0.00066521764 0.00084722042 0.0031637817
-0.21208467 -0.19973174 1.0371077 0.00011640787 -0.00095394254 0.0018018037 0.002042071
-0.20648132 -0.20109203 1.036666 -0.0002463311 -0.0011709034 0.0024839789 0.0027571444
-0.20155816 -0.20224734 1.0356411 0.0040499866 -0.0019907951 0.00082068145 0.004586848
-0.19733477 -0.20337148 1.0345868 0.0023865998 -0.0027290881 0.0034586638 0.0050106025
-0.083568037 -0.20126162 1.0360798 0.028222024 0.024297327 0.064578965 0.074547201
-0.081192151 -0.20059226 1.0372398 0.022976547 0.020821556 0.054597303 0.062787928
-0.23308931 -0.19321568 1.0384244 -0.00050966442 0.0035626292 -0.006882146 0.007766339
-0.22793923 -0.19393019 1.0371641 -0.001818344 0.0033590496 -0.0055021346 0.00669799
-0.22280824 -0.19528583 1.0365678 -0.00287503 0.0027172565 -0.0033647567 0.0051933485
-0.217733 -0.19662832 1.0364934 -0.0029754639 0.00074583292 0.00068226457 0.0031424731
-0.21114664 -0.19776212 1.0351338 -0.0016949773 1.5258789e-05 0.0012101978 0.0020827288
-0.082822375 -0.1964969 1.0360178 0.025931299 0.0099233687 0.072682776 0.077805467
-0.080240883 -0.19530053 1.036862 0.02158311 0.0059552342 0.065862231 0.069563851
-0.25036281 -0.18735798 1.0371203 0.0033194721 -0.00044545531 -0.0014559776 0.0036520127
-0.24458176 -0.18832007 1.037457 0.0049044043 0.0011417568 -0.0058880746 0.0077476585
-0.23916246 -0.18970332 1.0368781 0.002372995 0.00087323785 -0.0034709871 0.0042943452
-0.23387377 -0.1909073 1.0362467 3.5569072e-05 0.0026333928 -0.0053826421 0.0059924
-0.22928514 -0.19154121 1.0354246 -0.0016960502 0.0044164062 -0.0077107698 0.0090463916
-0.082901388 -0.19112554 1.0346286 0.032073319 -0.00075621903 0.097066924 0.10223139
-0.079423197 -0.18944257 1.0365355 0.010870069 -0.032925397 0.063611813 0.072447933
-0.076661728 -0.18862531 1.036671 -0.04515627 -0.13766254 0.052269429 0.15401998
-0.057106186 -0.18828052 1.0378579 -0.4262566 0.55713749 0.42842528 0.82197636
-0.054605011 -0.18900916 1.0385923 -0.055948347 0.42834419 0.24857607 0.49839646
-0.26105013 -0.18299299 1.0381658 -0.0024966896 0.0035471022 -0.0055342466 0.0070315916
-0.2557525 -0.18336654 1.0359962 -0.0014300644 0.00084301829 -0.0007199198 0.0018094332
-0.25041291 -0.18554236 1.0365463 0.0008815378 0.0011140108 -0.0028851926 0.0032159705
-0.2460707 -0.186257 1.0352685 0.0042679459 3.3885241e-05 -0.0031161904 0.0052846144
-0.078388527 -0.18464826 1.0367607 -0.013393134 -0.10056967 0.073268168 0.12514736
-0.076110311 -0.18409322 1.0371436 -0.83210707 0.40411282 0.34038138 0.98568189
-0.060648508 -0.18555945 1.0382227 -0.33942372 0.57063335 0.37891963 0.76446778
-0.057512235 -0.1845704 1.0366356 -0.3707906 0.55068958 0.42132744 0.78629607
-0.054758146 -0.18592688 1.0377021 -0.19313571 0.52504998 0.33015969 0.64960319
-0.26163509 -0.18083718 1.0355408 -0.005479604 0.0036989152 -0.0037813038 0.007616186
-0.25834319 -0.18069543 1.0341802 -0.0047937036 0.0031538904 -0.0031018257 0.0065228781
-0.077728972 -0.17960578 1.0360438 -0.0069907308 -0.10554549 0.081342325 0.13343649
-0.075445615 -0.17890897 1.0370582 -0.029682666 -0.12329803 0.049065679 0.13598128
-0.06105626 -0.18109319 1.0341234 -0.28988439 0.52105284 0.4223977 0.73071802
-0.057412297 -0.18040057 1.0356333 -0.27245837 0.51690811 0.40771914 0.71250439
-0.077425659 -0.17420988 1.0352404 0.029681355 -0.062279858 0.12915839 0.14642969
-0.075680755 -0.17511478 1.0363868 0.024661809 -0.043273009 0.10068784 0.11233343
-0.072660938 -0.16626588 1.0360476 0.04033038 -0.012941811 0.12733787 0.13419749
-0.0710558 -0.16592446 1.0354584 0.041448981 0.03229937 0.11489953 0.12634544
-0.072439909 -0.16248457 1.0362413 0.030506611 -0.046688858 0.1031198 0.11723564
-0.06996052 -0.16164674 1.0370717 0.025798321 -0.034896616 0.09162885 0.10138626
-0.065891057 -0.16125108 1.0385655 0.019284248 0.010838212 0.070927151 0.074296772
-0.072042726 -0.15831895 1.0360992 0.023619324 -0.089735813 0.086828344 0.12708089
-0.068785265 -0.1568816 1.036877 0.0021756887 -0.14480634 0.046293601 0.15204179
-0.065890901 -0.15740184 1.0375017 0.014108419 -0.051484536 0.053106919 0.075299732
-0.071877658 -0.15136036 1.0348978 0.017936707 -0.19838184 0.063064069 0.20893578
-0.069120936 -0.15208742 1.0358591 0.01579082 -0.17031214 0.057131723 0.18033193
-0.094830737 -0.25328451 1.0441564 0.065119863 0.055581152 -0.033232242 0.091838136
-0.091126569 -0.25478071 1.0427467 -0.083360612 -0.023197442 -0.099729106 0.13203411
-0.10065425 -0.24953339 1.0438427 0.18624526 0.037038714 -0.019014224 0.19084209
-0.095556214 -0.24999492 1.0422367 0.11929231 0.056982547 -0.0079035759 0.13243917
-0.09198077 -0.25067177 1.0422577 -0.064916551 -0.039016515 -0.037750244 0.08462581
-0.09437421 -0.24595325 1.0426146 -0.091892511 -0.068608165 -0.035033122 0.11991094
-0.092115022 -0.24478209 1.0424279 0.7474556 -0.53898728 -0.35270157 0.98670948
-0.12880318 -0.23707297 1.0434802 0.076125257 -0.0069432259 -0.035932422 0.084465392
-0.12346783 -0.23796877 1.0426049 0.11511568 -0.017687291 -0.030720338 0.12044998
-0.11937705 -0.23806512 1.0410831 0.14963159 -0.026255041 -0.022976041 0.15364517
-0.094065301 -0.2402169 1.0410845 0.72177267 -0.56146729 -0.37607199 0.98875248
-0.091159023 -0.23876689 1.0420822 0.80283844 -0.47328156 -0.3250187 0.98700666
-0.14425848 -0.23218666 1.0448639 -0.005232513 0.016269594 -0.02745907 0.032343149
-0.13967155 -0.23199701 1.0429003 0.0099097043 0.0086773038 -0.025054067 0.028305551
-0.13456576 -0.23329407 1.0421966 0.043453693 -0.0019233823 -0.027114287 0.051255316
-0.12958306 -0.2344915 1.0412538 0.068162531 -0.010557622 -0.024667054 0.073253378
-0.12436599 -0.23608738 1.0410001 0.10823017 -0.01769805 -0.027912378 0.11316401
-0.090065047 -0.23403142 1.0419486 0.8350203 -0.42544246 -0.31477278 0.9886061
-0.087446198 -0.2330514 1.0435913 0.86138922 -0.37734896 -0.28788623 0.98349488
-0.15555575 -0.2264837 1.0444372 0.0049715489 0.0059271157 -0.01488106 0.01677179
-0.15125518 -0.22665024 1.0425873 0.0064941943 0.0012888908 -0.0077191293 0.010169599
-0.14549677 -0.22848767 1.0419337 -0.0012440681 0.0076287389 -0.014064059 0.01604815
-0.14112321 -0.2295201 1.0412577 0.0024811924 0.0075685978 -0.017224193 0.018976638
-0.13570727 -0.23079427 1.0407568 0.039216295 -0.0020544231 -0.024474502 0.046272449
-0.089300856 -0.22963189 1.0426911 0.85532999 -0.38889229 -0.29562312 0.98499727
-0.08672335 -0.22862154 1.0431287 0.86170352 -0.38684976 -0.28826162 0.98756289
-0.1708256 -0.22010411 1.042163 0.0056510121 0.0053845346 -0.014622539 0.016575458
-0.1670609 -0.22096638 1.0437567 0.0073361695 0.0045665205 -0.014337867 0.016740577
-0.16234577 -0.22210634 1.042545 0.0068283975 0.0011192262 -0.007606253 0.010282741
-0.15694857 -0.22325869 1.0414947 0.0047949404 -0.00056156516 -0.0027614981 0.0055617155
-0.15261219 -0.22426212 1.0411457 0.0026567429 0.00094103813 -0.0040097833 0.0049012443
-0.089414768 -0.22300115 1.0415658 0.86204797 -0.38923454 -0.28355873 0.98743898
-0.086586557 -0.22136942 1.0421571 0.064860374 0.11757834 0.050238028 0.14337152
-0.18395698 -0.21505439 1.0428443 0.00096398592 0.0083630085 -0.016528994 0.018549308
-0.17851913 -0.21557957 1.0430633 0.0033035874 0.0076943636 -0.017363206 0.019276872
-0.17338471 -0.2170516 1.0420835 0.0019065142 0.0040730536 -0.0094041228 0.010424111
-0.1681024 -0.21868433 1.0418032 0.0047007948 0.0021643043 -0.0079188794 0.0094599333
-0.16469942 -0.21829973 1.0405717 0.0035313666 0.00023671985 -0.0032906234 0.0048326794
-0.08842542 -0.21946579 1.0406779 0.87210876 -0.37662414 -0.27049655 0.98771852
-0.085586481 -0.21733798 1.0424709 0.062350094 0.11305876 0.059000529 0.1419538
-0.082344249 -0.21575364 1.043949 0.049005121 0.092305779 0.048548669 0.11523382
-0.19366753 -0.2103118 1.0440432 0.0016694367 0.0082484782 -0.016743988 0.018739944
-0.18902791 -0.21100575 1.0423239 -0.0029437393 0.0068126321 -0.010929137 0.013210738
-0.18452384 -0.212337 1.0417633 0.00071419775 0.0037868023 -0.0079128742 0.0088013373
-0.17937522 -0.21346249 1.0409385 -0.00077439845 0.0035141408 -0.0062809587 0.0072387373
-0.17344007 -0.21444574 1.0410268 -3.3482909e-05 0.002564162 -0.0050147772 0.0056324094
-0.084362552 -0.2118679 1.0418315 0.04838255 0.089290433 0.051756501 0.11398415
-0.081875019 -0.2104007 1.0433178 0.037303865 0.071059465 0.040748626 0.090008199
-0.21455422 -0.20380859 1.0448461 0.0059879571 0.011364996 -0.025263846 0.028342206
-0.21038744 -0.20356916 1.0425406 0.0027525425 0.0031383634 -0.0079537034 0.0089826062
-0.20591193 -0.20511833 1.0426553 0.0046426803 0.0028125048 -0.0087740868 0.010317425
-0.20097634 -0.20652135 1.0422339 0.002893731 0.0031608343 -0.0081982762 0.0092507452
-0.19676553 -0.20713761 1.0407437 0.00048756599 0.0017603934 -0.0037671775 0.0041866852
-0.083613373 -0.20680603 1.0422111 0.031560957 0.049926087 0.047645092 0.075886518
-0.081222787 -0.20612162 1.0424156 0.025119305 0.040423483 0.040458307 0.062465284
-0.22704892 -0.1983493 1.0441213 0.0059960037 0.010515124 -0.024102315 0.026971124
-0.22186817 -0.19908875 1.0427098 0.0031361133 0.0069252253 -0.015626505 0.017377619
-0.21713325 -0.20030843 1.0420871 0.0019533783 0.005502671 -0.012146339 0.013476967
-0.21192271 -0.20159183 1.0418575 0.0011418015 0.002676487 -0.0060372204 0.0067018894
-0.20682596 -0.20308122 1.0409454 0.002800867 0.00028178096 -0.0026052594 0.0038355747
-0.083264872 -0.20140989 1.0415499 0.026257962 0.030244574 0.056369044 0.069149718
-0.080413051 -0.20051032 1.0423764 0.019170612 0.024026498 0.042422161 0.052387256
-0.23746568 -0.19347291 1.0429749 0.0033108443 0.011063963 -0.023937508 0.02657776
-0.23351623 -0.19446431 1.0427822 0.0035603195 0.0095022917 -0.021177083 0.023482723
