# .PCD v0.7 - Point Cloud Data file format
VERSION 0.7
FIELDS x y z normal_x normal_y normal_z curvature
SIZE 4 4 4 4 4 4 4
TYPE F F F F F F F
COUNT 1 1 1 1 1 1 1
WIDTH 580
HEIGHT 1
VIEWPOINT 0 0 0 1 0 0 0
POINTS 580
DATA ascii
0.41265464 -0.33205402 0.91775012 0.012311898 0.16069849 -0.083428234 0.18148239
0.41756946 -0.33214089 0.9174943 0.0040793568 0.1587151 -0.079741538 0.17766777
0.42242098 -0.33299547 0.91787815 0.012646064 0.14128464 -0.073294044 0.15966618
0.42759711 -0.33247396 0.9172442 0.022819672 0.12034383 -0.060579658 0.13665017
0.43240511 -0.33290625 0.91771299 0.034668893 0.098460808 -0.054840207 0.11791485
0.43732888 -0.33312103 0.91764784 0.04639864 0.089128718 -0.054409027 0.11426768
0.44254249 -0.33206198 0.91691923 0.049430668 0.094020754 -0.057154328 0.12062301
0.44725919 -0.33288717 0.91677767 0.041980345 0.070105866 -0.046686709 0.094110735
0.45269877 -0.33305642 0.91608649 0.058821335 0.053956315 -0.039061368 0.088865198
0.45745087 -0.33217728 0.91535813 0.040250473 0.048337668 -0.032494634 0.070799239
0.46209401 -0.33311003 0.91500431 0.044704776 0.026991308 -0.018655002 0.055453192
0.3773776 -0.32549617 0.91913837 -0.0026788637 0.14453873 -0.064380407 0.15825126
0.38349479 -0.32663611 0.91959822 0.0086917803 0.13845344 -0.061891526 0.1519061
0.38775069 -0.32640755 0.91842669 0.025638491 0.12598154 -0.056097358 0.14026971
0.39253816 -0.32725942 0.91818309 0.023984194 0.13583994 -0.062885582 0.15159923
0.39730752 -0.32757929 0.91764486 0.026660696 0.1510029 -0.07352379 0.17005415
0.40264273 -0.32719526 0.91751432 0.027261809 0.14729658 -0.067803204 0.16442859
0.4077124 -0.32748854 0.91747922 0.023094632 0.150694 -0.067944288 0.16690856
0.4122566 -0.32808283 0.91779488 0.010632016 0.14361051 -0.063436478 0.15735693
0.41778368 -0.32763472 0.91754121 0.0093683824 0.14314438 -0.059360832 0.15524751
0.42268094 -0.32712349 0.91722542 0.016355723 0.12611628 -0.047317564 0.13569
0.42742765 -0.32765973 0.91737372 0.012152337 0.11326241 -0.042509198 0.12158571
0.43224129 -0.32744169 0.91680998 0.035936497 0.096123733 -0.039512813 0.10996575
0.4377782 -0.3276816 0.91640157 0.053102158 0.081552967 -0.038433522 0.10463203
0.44250858 -0.32825223 0.91626084 0.053673211 0.072087079 -0.036464542 0.09698981
0.44693634 -0.32862133 0.91587514 0.045583747 0.073463604 -0.037591517 0.094275668
0.45210314 -0.32971781 0.9155674 0.059162341 0.047973812 -0.029716343 0.081760198
0.35906455 -0.32055837 0.91948622 0.0036560073 0.11859123 -0.047396749 0.12776423
0.36288643 -0.32143211 0.91911733 0.009215124 0.11081243 -0.044795722 0.11987898
0.36721078 -0.32112473 0.91829032 0.011616372 0.10031794 -0.037430108 0.10770164
0.37318978 -0.32090333 0.91951001 0.0023684502 0.11704514 -0.042339623 0.12449023
0.37854809 -0.32210165 0.91807514 0.004451111 0.11622032 -0.043080926 0.12402798
0.38253194 -0.32273114 0.91790104 0.012372177 0.12738577 -0.050328285 0.13752505
0.38699636 -0.32219529 0.91750532 0.015608046 0.12803644 -0.048989028 0.13797416
0.39286321 -0.32243913 0.91742134 0.022931635 0.13280508 -0.050309867 0.14385456
0.39776567 -0.32248104 0.91743773 0.028886259 0.13553363 -0.051861018 0.147964
0.40222368 -0.32291466 0.91767192 0.020533241 0.13266516 -0.048489153 0.14273351
0.40759841 -0.32251236 0.91763133 0.015790146 0.13434714 -0.045343339 0.1426692
0.41291004 -0.32205817 0.91702402 0.010946143 0.11400763 -0.033655047 0.11937429
0.41762179 -0.32290897 0.91746193 0.011958338 0.11057801 -0.0327425 0.1159421
0.4221417 -0.32291871 0.91691989 0.0034496412 0.11545687 -0.031734854 0.11978852
0.42745367 -0.32219177 0.91678172 0.012515664 0.1136416 -0.030287445 0.11827251
0.43196505 -0.32306591 0.91681767 0.025560331 0.099251807 -0.028954148 0.10650162
0.43649477 -0.32336247 0.91624182 0.038383916 0.080962248 -0.026834011 0.093532212
0.4424327 -0.32096714 0.91520381 0.044483438 0.062177524 -0.018155634 0.078577653
0.4472501 -0.32222494 0.91511196 0.052655715 0.048810765 -0.017944515 0.074007578
0.35660699 -0.3176499 0.91853374 -0.0044220164 0.12771547 -0.04618609 0.13588212
0.36264741 -0.31706557 0.91797292 0.00233512 0.10314454 -0.032653213 0.10821498
0.3679795 -0.31710696 0.9175064 0.0047296882 0.096848965 -0.029449284 0.10133782
0.37241906 -0.3172617 0.91808963 0.011870306 0.10542968 -0.032782346 0.11104505
0.37803912 -0.31778258 0.91818428 -0.01668489 0.10724952 -0.029482037 0.11247238
0.38276833 -0.31743753 0.91732424 0.013896938 0.10334004 -0.03039968 0.10861136
0.38785931 -0.31740263 0.91735685 0.014392022 0.097827032 -0.026509732 0.10237199
0.39236242 -0.31806728 0.9178803 0.027141999 0.10976439 -0.032602698 0.11767687
0.39754423 -0.31746259 0.9175542 0.026397191 0.10879217 -0.029850245 0.11586019
0.40283287 -0.31715146 0.91705501 0.017035261 0.10690835 -0.025938362 0.11132113
0.40726149 -0.31768075 0.91763502 0.011530612 0.10221472 -0.022795618 0.10535865
0.41203567 -0.31783926 0.91732526 0.0057443418 0.10004213 -0.020554781 0.10229333
0.41740447 -0.31738392 0.91717285 0.019281562 0.10608126 -0.02269879 0.11018279
0.42227614 -0.3178266 0.91646683 0.013778277 0.092269763 -0.017485738 0.094917342
0.42682251 -0.31728107 0.91592038 0.0049024634 0.088669479 -0.013625324 0.089844085
0.43236777 -0.31736302 0.91549987 0.023114726 0.087004319 -0.015053481 0.091272391
0.43756473 -0.31787303 0.91565293 0.030876584 0.058838338 -0.0113478 0.067409836
0.44089508 -0.31883904 0.91559601 0.034955338 0.053880911 -0.011930704 0.065325111
0.35840619 -0.31237695 0.91748184 -0.0031540282 0.10159943 -0.025316626 0.10475363
0.36233038 -0.31279352 0.91759986 0.0042177215 0.093503289 -0.023845464 0.096588098
0.36727566 -0.31292197 0.91772056 0.00047921762 0.10078874 -0.024343729 0.10368808
0.37162304 -0.31186637 0.91715556 -0.0054999217 0.083150074 -0.01582405 0.084820896
0.37771925 -0.31246039 0.91724509 -0.0073584914 0.098832384 -0.020187676 0.10114113
0.38197169 -0.31299749 0.91766393 0.010997657 0.097598001 -0.021478444 0.10053676
0.38765323 -0.31241736 0.91773492 0.019760825 0.08435896 -0.0167602 0.08824867
0.39233983 -0.31197467 0.9168545 0.042267986 0.079522453 -0.018371016 0.091912441
0.39737746 -0.31286958 0.91766894 0.029821776 0.087133467 -0.017952532 0.093828961
0.40217879 -0.31293213 0.91758937 0.023841567 0.086033471 -0.016204417 0.090734571
0.40772259 -0.3123095 0.91706932 0.012678228 0.091392905 -0.013432145 0.093240678
0.41277382 -0.31227517 0.91662216 0.017149519 0.082700744 -0.01109916 0.085186325
0.41695201 -0.31309092 0.91635191 0.0087383687 0.083890706 -0.009796232 0.084911577
0.42292973 -0.31261745 0.91592324 0.018797498 0.075348154 -0.0083101094 0.07810089
0.42804572 -0.31244627 0.91628152 0.015609242 0.063633524 -0.0050383508 0.065713458
0.43224129 -0.31320193 0.91607541 0.0056647137 0.062962696 -0.0036476552 0.063322157
0.43622375 -0.31062561 0.91519541 -0.00084602833 0.038854823 0.00089147687 0.038874254
0.35933423 -0.30860552 0.91819423 -0.0048296489 0.088802829 -0.01586324 0.090337761
0.36205313 -0.3071138 0.91722125 0.0094111934 0.080339059 -0.013470739 0.082002416
0.36753464 -0.30725238 0.91718972 -0.011668347 0.083548009 -0.011089385 0.085084632
0.37167805 -0.30794495 0.91768473 -0.00029697642 0.074393831 -0.0099060237 0.075051047
0.37730742 -0.30761388 0.91746235 -0.000894472 0.079613551 -0.010026574 0.080247425
0.38321546 -0.30735496 0.91738391 0.0060806796 0.081084877 -0.0095134676 0.081867196
0.38757309 -0.3076722 0.91763514 0.0074582063 0.073619664 -0.0077021122 0.074396253
0.39174321 -0.30782926 0.9176563 0.0099423677 0.066772349 -0.0064570904 0.0678166
0.39783505 -0.30715728 0.91728997 0.037135184 0.050070904 -0.0068327188 0.062712066
0.40260714 -0.30721149 0.91667604 0.030508514 0.050992511 -0.0056300461 0.059688382
0.40692556 -0.30792683 0.91689885 0.017482422 0.061511971 -0.0042749941 0.064090818
0.4120779 -0.3077274 0.91654205 0.018702004 0.046306156 -0.0022533536 0.049991027
0.41807884 -0.30718657 0.9163866 0.010270275 0.030925592 8.72612e-05 0.032586474
0.42217737 -0.30734888 0.91658407 -0.0087079294 0.040591165 0.0020715594 0.041566357
0.42689851 -0.30775622 0.91621923 0.0013303049 0.034801785 0.0010071993 0.034841765
0.43237036 -0.30756634 0.91562641 -0.0047771595 0.016455669 0.0014026463 0.017192373
0.43665886 -0.30893916 0.91557133 -0.0074247569 0.031258356 0.0018901229 0.032183602
0.36191735 -0.30255097 0.91774088 -0.0044685975 0.060603771 -0.0037164092 0.060881827
0.36759645 -0.30259994 0.9174124 -0.0019145422 0.056884035 -0.0028370619 0.056986909
0.37308574 -0.30220583 0.91735649 -0.0033780076 0.05186953 -0.0017011762 0.052007243
0.37724271 -0.30236697 0.91750675 0.014633704 0.047842722 -0.0026025176 0.050098348
0.38343096 -0.30331758 0.91755939 -0.005906269 0.043731064 -0.00047412515 0.044130657
0.38782117 -0.30204058 0.91740704 0.0040116385 0.041501414 -0.00013899803 0.041695084
0.39259657 -0.30254656 0.9172135 0.0086028874 0.035180453 -0.00044184923 0.036219735
0.3971588 -0.30280185 0.91759968 0.023070965 0.029853195 -0.0018585026 0.037774816
0.4023746 -0.3025533 0.91724062 0.036891051 0.021467535 -0.0035667717 0.042831372
0.40808207 -0.30215248 0.9168275 0.009420149 0.01973738 0.0005223453 0.021876385
0.41239503 -0.30221918 0.91646343 0.0087910742 0.017782949 0.00067856908 0.019848846
0.41770354 -0.30307657 0.91698742 0.0052088946 0.0075959228 0.00026521087 0.0092141712
0.42250365 -0.3019934 0.91680592 0.00069856271 -0.010935888 -0.0014157891 0.011049258
0.42734557 -0.30267742 0.91633594 -0.013880972 -0.015208129 -0.00094839931 0.020612327
0.43129826 -0.3022157 0.91600567 -0.011793496 -0.030988157 -0.0042065084 0.033422254
0.43744111 -0.30155924 0.91525644 0.0051102266 -0.029970646 -0.0058223605 0.030955676
0.4426268 -0.30173856 0.91547775 0.0055874139 -0.021874405 -0.004468143 0.023014629
0.44679832 -0.30252743 0.91549206 0.017606135 -0.023130551 -0.0060271323 0.029687114
0.45013401 -0.30072764 0.91600955 0.0019395538 -0.05497054 -0.013655245 0.056674402
0.52769089 -0.3005991 0.91543609 0.083458476 0.0095314384 -0.73163533 0.73644173
0.53227526 -0.30047873 0.91568547 0.073320523 0.028747708 -0.70232916 0.7067309
0.53731263 -0.3011412 0.91600841 0.057122301 0.022847861 -0.6855886 0.68834347
0.54212999 -0.30146164 0.91653359 0.062090926 0.012692153 -0.66535819 0.66836959
0.54773194 -0.30187887 0.9163813 0.14811088 -0.02327463 -0.64440036 0.66161197
0.55297589 -0.30142027 0.9166081 0.60547483 0.24955764 -0.65583599 0.9268223
0.55699819 -0.30198047 0.91693985 0.69671649 0.20404874 -0.60161519 0.94286299
0.56068462 -0.30164793 0.9173916 0.76329935 0.19780585 -0.53147912 0.95090646
0.36316699 -0.29737809 0.91721237 -0.00089923665 0.017930323 0.00060972571 0.017963208
0.36730954 -0.29756007 0.91763127 0.0027575977 0.020528445 0.0003836751 0.020716384
0.37219894 -0.29775655 0.91769713 0.0067952201 0.016353734 0.00013029575 0.017709788
0.37680385 -0.29718944 0.91683114 0.014843747 0.024942985 0.00012633204 0.02902594
0.38259408 -0.29735121 0.91724998 -0.0060685687 0.016017435 0.0016357303 0.017206434
0.38719985 -0.2977367 0.9178555 -0.0059118904 0.0098426975 0.0012359917 0.011548022
0.3923932 -0.29802015 0.91768545 0.012091912 -0.0018970929 -0.001298368 0.012308495
0.39798665 -0.29690862 0.91708821 0.036421686 -0.0026551075 -0.0043399334 0.036775313
0.4022826 -0.29766479 0.91753608 0.015669104 -0.0025832728 -0.0017197132 0.015973464
0.40708107 -0.29769266 0.91736424 0.010721982 -0.0036089309 -0.0013766885 0.011396514
0.41277605 -0.29738119 0.91720742 -0.016695913 -0.026386596 -0.0031619668 0.031384774
0.41758195 -0.29726842 0.91717714 -0.0059579052 -0.032169007 -0.0052593648 0.033136122
0.4220435 -0.29785615 0.91736042 -0.020646051 -0.03648179 -0.005671978 0.042300731
0.4277553 -0.29736257 0.916444 -0.027821083 -0.046218321 -0.0087886453 0.054656986
0.43281499 -0.29728401 0.91607809 -0.021763168 -0.067732386 -0.015856862 0.072888628
0.43744045 -0.29817194 0.91596454 0.0026818886 -0.051855601 -0.012806714 0.053480912
0.44223684 -0.29683885 0.91634548 0.0066933259 -0.068304218 -0.020567954 0.071647108
0.44745454 -0.29715019 0.91642898 0.0074917078 -0.08181347 -0.027128965 0.086519077
0.45195737 -0.29697111 0.91631627 -0.0074799228 -0.074907549 -0.024377167 0.079128608
0.45719221 -0.29617435 0.91551179 -0.0036464669 -0.077708453 -0.02944842 0.083181188
0.46238214 -0.29683238 0.915353 -0.011035187 -0.070490763 -0.026888877 0.076247856
0.46807754 -0.29720542 0.91544551 -0.023696063 -0.058986425 -0.023766965 0.067865826
0.47256637 -0.29675379 0.91556102 -0.035787761 -0.052753404 -0.023267806 0.067860715
0.47710457 -0.2965098 0.91566342 -0.025757032 -0.054834336 -0.026446193 0.066103183
0.48295364 -0.29660669 0.91566384 -0.024431456 -0.036709026 -0.01938504 0.048168749
0.48816848 -0.29679433 0.91561043 -0.033069763 -0.02799274 -0.016191959 0.046253458
0.49175212 -0.29707208 0.91551918 -0.037083928 -0.041679934 -0.024940312 0.061110176
0.49740857 -0.29690668 0.91548067 -0.039774179 -0.026775599 -0.017741591 0.051124185
0.50299925 -0.29698107 0.91535437 -0.028770253 -0.040297985 -0.027865589 0.056816775
0.50668716 -0.29687962 0.91528481 -0.0072303601 -0.049862593 -0.03449595 0.061061665
0.51236659 -0.29620567 0.91583562 0.10408568 0.6003136 -0.78675061 0.99508131
0.51788604 -0.29590181 0.91676277 0.15513352 0.5984574 -0.7725929 0.98950362
0.52343208 -0.29731026 0.91697514 0.093962729 0.07633239 -0.76747817 0.77696747
0.52772182 -0.29697779 0.91711998 0.053427633 -0.01843667 -0.67652988 0.67888671
0.53216392 -0.29733875 0.9170509 0.040360138 -0.016581178 -0.65331382 0.65476924
0.53761351 -0.29738101 0.91740316 0.022607405 -0.0082136393 -0.64183199 0.64228255
0.54293853 -0.29712054 0.91730237 -0.0005344376 -0.031898052 -0.58274162 0.58361423
0.54699278 -0.29748085 0.91768187 -0.013308562 -0.050193518 -0.51208651 0.51471263
0.55238986 -0.2980825 0.91761744 -0.12179764 0.24471131 0.059121668 0.27966705
0.55777317 -0.29887569 0.91778123 0.0080190301 0.21434836 0.14189664 0.2571851
0.56138116 -0.29922459 0.91816682 0.04745242 0.19975412 0.18689531 0.27763876
0.36427528 -0.29287875 0.91805887 -0.0014109127 -0.0067349896 -0.00067973137 0.0069146794
0.36715829 -0.29236996 0.91724181 -0.0015001409 -0.0010585226 -1.6689301e-05 0.001836075
0.37260363 -0.29213512 0.91732174 -0.016045356 3.5367906e-05 0.00087544322 0.016069259
0.37685409 -0.29263359 0.91651011 -0.0034588426 -0.017434381 -0.0021767616 0.017906968
0.38261533 -0.29251823 0.91699046 -0.0087869037 -0.023057505 -0.0031042099 0.024869546
0.38812825 -0.29221946 0.91730469 -0.0090978742 -0.029183827 -0.0046311915 0.030917875
0.39225572 -0.29227567 0.91735387 -0.0024564192 -0.022642769 -0.0040681064 0.023136085
0.39681718 -0.29248798 0.9176113 0.012746021 -0.033926912 -0.0080536306 0.037126236
0.40306789 -0.29231885 0.91733027 0.011984963 -0.044862971 -0.011003852 0.047722217
0.40757406 -0.29214641 0.91735601 0.00078396499 -0.052493043 -0.012873352 0.054054212
0.41224015 -0.29274094 0.91794986 -0.0094026476 -0.046553232 -0.010497898 0.048639689
0.41761991 -0.29218191 0.91747183 -0.019109372 -0.057579562 -0.014564902 0.06239159
0.4228684 -0.29237914 0.91744184 -0.032348856 -0.066817395 -0.017950416 0.076375589
0.42741182 -0.29269794 0.91731572 -0.027771939 -0.065173022 -0.018590212 0.073242061
0.43249911 -0.29189643 0.91720754 -0.023875318 -0.056832954 -0.01789552 0.064189292
0.43769053 -0.291953 0.91682953 -0.020994935 -0.065433279 -0.022767991 0.072392561
0.44206107 -0.29267856 0.91673124 -0.013937193 -0.085996047 -0.032468975 0.092972033
0.44770074 -0.29224128 0.91666245 -0.0098499497 -0.098553792 -0.042283952 0.1076931
0.45246968 -0.29258338 0.91689903 -0.0079525281 -0.099655509 -0.044629812 0.10948189
0.45738131 -0.29263434 0.91713214 -0.0082875434 -0.098616108 -0.04548502 0.10891605
0.46217841 -0.29173338 0.9170211 -0.0088828877 -0.096430928 -0.048297375 0.1082149
0.46742532 -0.29228896 0.91719031 -0.021749236 -0.095129877 -0.050536156 0.10989369
0.47211683 -0.29224625 0.91723037 -0.031745717 -0.094518483 -0.053360522 0.11308793
0.47808081 -0.29180905 0.91667616 -0.024468224 -0.088955984 -0.05449158 0.10715033
0.48235613 -0.29231596 0.91670102 -0.038598448 -0.083360761 -0.053708732 0.10641186
0.48773751 -0.29176849 0.91712189 -0.038697083 -0.081471637 -0.056841463 0.10661165
0.49240902 -0.29176667 0.91646391 -0.051870808 -0.076277584 -0.0569022 0.10838225
0.49726817 -0.29234526 0.91716939 0.056246664 0.59189177 -0.7953071 0.99298185
0.50288004 -0.29207617 0.91727507 0.069883183 0.61747134 -0.77338552 0.9921087
0.50748992 -0.29242903 0.91711593 0.076894179 0.6267764 -0.76673114 0.99329656
0.51266968 -0.29314116 0.917615 0.10787164 0.65261137 -0.73928773 0.99201018
0.51763833 -0.29221597 0.91738635 0.13237062 0.67666143 -0.71249956 0.99148792
0.52256531 -0.29250285 0.91760695 -0.043110698 0.078420937 0.069683164 0.1134201
0.5269652 -0.29302433 0.91765237 -0.083976723 -0.018187016 -0.062465519 0.10622993
0.5321762 -0.29275399 0.91780585 -0.02056317 -0.057942569 -0.48918423 0.49303284
0.53699356 -0.29353824 0.91783154 -0.040819071 -0.050414681 -0.50052649 0.50471234
0.54258841 -0.29437825 0.91820455 -0.12286397 -0.05827871 -0.36741799 0.39177537
0.54778206 -0.29438061 0.91954666 -0.24267495 0.13348529 -0.019839406 0.27767435
0.36717808 -0.28749365 0.91772491 -0.0065986924 -0.020597167 -0.0037492514 0.021950921
0.37274224 -0.28742692 0.9171353 -0.0063683111 -0.025470339 -0.0051565766 0.026756005
0.37801009 -0.28747916 0.91729033 -0.022196423 -0.040345103 -0.008890599 0.046898305
0.38226694 -0.28749287 0.91750115 -0.00071560219 -0.046097584 -0.011771441 0.047582205
0.38821948 -0.28804535 0.91788471 -0.012681119 -0.046016045 -0.011312366 0.049053609
0.39256006 -0.28741232 0.91757143 -0.0068300236 -0.063874051 -0.017885834 0.066681683
0.39743996 -0.28721932 0.91715854 0.007871639 -0.056017846 -0.017230809 0.059134275
0.4024857 -0.28760797 0.91785777 0.010165598 -0.066377051 -0.021487713 0.070505135
0.40746486 -0.28745133 0.91733986 -0.0035704039 -0.068155222 -0.022109717 0.071740657
0.41273415 -0.28767365 0.91768241 -0.02067304 -0.074294694 -0.024721473 0.080982886
0.41734806 -0.28752416 0.91741723 -0.023328977 -0.075795084 -0.026612371 0.083650187
0.42254165 -0.28721854 0.91742122 -0.030477416 -0.073579952 -0.027599931 0.084289014
0.42773971 -0.28744161 0.91737235 -0.025318384 -0.074586511 -0.029412121 0.084078774
0.43210503 -0.287808 0.91782618 -0.028498219 -0.071785763 -0.029807627 0.082787916
0.43755102 -0.2875405 0.9174338 -0.036105461 -0.080880582 -0.037255436 0.096089751
0.442857 -0.28750846 0.91754627 -0.039431952 -0.091080561 -0.04543376 0.10915481
0.44787851 -0.28777486 0.91754967 -0.022905955 -0.099386409 -0.053582639 0.11521041
0.45283499 -0.2871792 0.91726863 -0.022826124 -0.10409611 -0.060806841 0.1226968
0.45746946 -0.28720805 0.91729772 -0.010705275 -0.10793884 -0.065572143 0.12674819
0.46217284 -0.28765681 0.91751987 -0.018016402 -0.12673292 -0.077623755 0.14970393
0.46771553 -0.28722426 0.91737431 -0.021583442 -0.12764628 -0.084149778 0.15440403
0.47231469 -0.28763911 0.91762567 -0.025087509 -0.12807897 -0.087490916 0.157125
0.47742724 -0.28773171 0.9175725 0.024495387 0.57211369 -0.80433357 0.98735332
0.48285615 -0.28740531 0.9174993 0.033419952 0.59168243 -0.79105175 0.98841685
0.48737216 -0.28779989 0.91776139 0.054273721 0.61199248 -0.77186131 0.98653448
0.49227509 -0.28755677 0.9175626 0.06761378 0.62781197 -0.75649273 0.9853937
0.49780884 -0.28736436 0.91749978 0.069112226 0.64008355 -0.748613 0.9873727
0.5019964 -0.28784856 0.91766548 0.07869947 0.66354144 -0.72341359 0.9847883
0.50711846 -0.28770742 0.91762984 0.090706833 0.67653883 -0.70796317 0.98343498
0.51272577 -0.28839239 0.91756958 0.098998338 0.69277298 -0.69270766 0.98467201
0.51738775 -0.28882408 0.91799581 0.13517442 0.69969869 -0.68221784 0.98654526
0.52089602 -0.28873837 0.91791433 0.14946878 0.71107876 -0.67169476 0.98951894
0.36755353 -0.28257117 0.91785514 -0.015014895 -0.062576689 -0.018576413 0.066980384
0.37205443 -0.28226385 0.91771871 -0.011968922 -0.062434942 -0.019770443 0.066575125
0.37791213 -0.28265423 0.91761154 -0.013857688 -0.061537445 -0.019777745 0.066106372
0.38158262 -0.28177661 0.9169544 -0.0057306383 -0.062328309 -0.02137658 0.066140883
0.38735595 -0.28250092 0.91749269 -0.029416006 -0.060781643 -0.020354241 0.070526622
0.39225087 -0.28257048 0.91767371 -0.012475898 -0.066077605 -0.023918599 0.071372248
0.39793953 -0.28249437 0.91751117 0.0079393629 -0.08834295 -0.036957204 0.096090294
0.40285668 -0.28245303 0.91760504 0.0080701541 -0.088319778 -0.038521618 0.096692428
0.40727022 -0.28275356 0.9174583 -0.010229881 -0.091708869 -0.039839476 0.10051046
0.41238794 -0.28242195 0.91743565 -0.017736344 -0.08839649 -0.040026009 0.098643795
0.41776696 -0.28243926 0.91740924 -0.019562978 -0.09243618 -0.043763369 0.1041268
0.42216218 -0.28269452 0.91790456 -0.024530843 -0.084777072 -0.042244822 0.097844459
0.42758429 -0.28263429 0.91765076 -0.029982615 -0.081012517 -0.043476701 0.096706823
0.43272451 -0.28199208 0.91691208 -0.029504051 -0.074827746 -0.044222921 0.091789693
0.43737921 -0.28262398 0.91740531 -0.03083862 -0.068006545 -0.04158631 0.085471235
0.44231248 -0.28257227 0.91755432 -0.044971202 -0.05567205 -0.038138151 0.081094414
0.44767711 -0.28236744 0.91750085 -0.026470255 -0.071462452 -0.050492555 0.091416925
0.45227617 -0.2831158 0.91797334 -0.030869173 -0.084908277 -0.06256029 0.10989136
0.45769194 -0.28251278 0.91751909 0.018467277 0.59747595 -0.79239118 0.99257356
0.46270791 -0.28228933 0.9174059 0.021063093 0.60666049 -0.78173554 0.98974293
0.46759844 -0.28309974 0.91760403 0.024892662 0.59718454 -0.7830348 0.98508501
0.47265738 -0.2819598 0.91732109 0.025273349 0.61451834 -0.76815999 0.98404336
0.47732061 -0.28262955 0.91749948 0.041441865 0.62513894 -0.75538474 0.98138791
0.48236766 -0.28307128 0.91789824 0.066932887 0.64059979 -0.73965538 0.98078448
0.48774916 -0.28321353 0.91785681 0.068235919 0.65325403 -0.72721386 0.97991681
0.49186894 -0.28366256 0.91783613 0.083266176 0.65473658 -0.72588855 0.98108482
0.4969891 -0.28444424 0.91763467 0.094095059 0.66219777 -0.71981323 0.98259389
0.36924359 -0.27740461 0.91761655 -0.028206004 -0.06790714 -0.026665956 0.078217842
0.37240434 -0.27724817 0.91716248 -0.025341155 -0.071435764 -0.028946012 0.081136391
0.3769795 -0.27773428 0.9176383 -0.032236937 -0.078362167 -0.032540381 0.090767428
0.38157302 -0.27725318 0.91742432 -0.019520527 -0.085152388 -0.037804186 0.095190004
0.3882882 -0.27771109 0.91748685 -0.01882345 -0.087215111 -0.039283216 0.097488299
0.39264438 -0.27780107 0.91778135 -0.017318128 -0.088137582 -0.040932178 0.098709643
0.39708763 -0.27776507 0.91784793 -0.015638374 -0.093217358 -0.04531461 0.10482103
0.40199375 -0.27737224 0.91740394 0.0080416529 -0.09713538 -0.050855815 0.10993755
0.40789053 -0.27769259 0.91758156 -0.012277228 -0.10859804 -0.059580147 0.12447513
0.4121246 -0.27787924 0.9178738 -0.02662776 -0.098240972 -0.056598097 0.11646317
0.41729483 -0.27753177 0.91783059 -0.022231583 -0.092475489 -0.056560397 0.1106573
0.42270631 -0.27754766 0.91712552 -0.019239141 -0.088969946 -0.058709413 0.10831708
0.42733887 -0.27785593 0.91762847 -0.030798508 -0.078226388 -0.05487746 0.10039648
0.43271893 -0.27822113 0.91786617 -0.025008161 -0.0693461 -0.051531315 0.089943126
0.43748757 -0.27745122 0.91795462 0.039117947 0.63194394 -0.76897013 0.9960916
0.44203129 -0.27793485 0.91789198 0.057449296 0.64135301 -0.75885749 0.99523807
0.44673368 -0.27834076 0.91805142 0.055004239 0.63604915 -0.76526356 0.99660039
0.452773 -0.27867764 0.91831177 0.04538282 0.66025329 -0.74278665 0.99484968
0.45723623 -0.27894232 0.91845959 0.049863916 0.66705322 -0.73537672 0.99409527
0.46286187 -0.27898952 0.91841084 0.038902424 0.67791092 -0.72277784 0.99170786
0.46710432 -0.27933431 0.91882002 0.036574706 0.67612594 -0.72337979 0.99083918
0.47300982 -0.27930611 0.91907352 0.052558713 0.68978047 -0.70313156 0.98638409
0.47783875 -0.27978271 0.91939771 0.051863506 0.67629814 -0.7104857 0.98227233
0.36961973 -0.27377066 0.91980469 -0.030631065 -0.080351591 -0.037060946 0.09363842
0.37228304 -0.27314955 0.91791606 -0.030161906 -0.080108494 -0.038129151 0.09370669
0.37830099 -0.27271995 0.91835427 -0.025225181 -0.095863268 -0.051221699 0.11157839
0.38210505 -0.27317613 0.91837537 -0.016082343 -0.10174674 -0.054395854 0.11649012
0.3872847 -0.27422827 0.91874629 -0.034123328 -0.083651796 -0.041962802 0.099613763
0.39383727 -0.2732133 0.91853374 -0.017693967 -0.094039693 -0.052047789 0.10892893
0.39758706 -0.27342126 0.91884905 -0.021136984 -0.10803349 -0.063004643 0.12683688
0.40165174 -0.27384505 0.91858989 0.0067074373 -0.10493946 -0.062055141 0.12209882
0.40732852 -0.27379695 0.91832155 -0.013350239 -0.10471687 -0.068029851 0.12558627
0.41291356 -0.27389297 0.91855192 -0.020262739 -0.089681745 -0.061974496 0.11087935
0.41676468 -0.27351579 0.91902363 -0.020935746 -0.069459468 -0.052690893 0.089661889
0.42233947 -0.27423754 0.91897392 -0.019184886 -0.064446121 -0.051164657 0.084493697
0.4282591 -0.27422073 0.91842806 0.040579762 0.6247499 -0.77606261 0.99711198
0.4318679 -0.27451107 0.91862679 0.048911486 0.65003067 -0.75480908 0.99733096
0.43732241 -0.27445984 0.91899562 0.057800971 0.68277568 -0.72362566 0.99657291
0.37781608 -0.26956937 0.91977 -0.037484296 -0.10480851 -0.063515872 0.12815678
0.44820911 -0.34545127 0.92348152 0.041915633 0.035552651 -0.040652871 0.068363495
0.45278859 -0.34599304 0.92320335 0.015104596 0.030703813 -0.035105199 0.049022932
0.45639253 -0.34597176 0.92377156 -0.010270189 0.033290058 -0.041699737 0.05433758
0.46020114 -0.34562635 0.92423779 -0.04597792 0.028429359 -0.04456827 0.070060886
0.42311525 -0.34054416 0.92411679 0.028991938 0.1396905 -0.1069302 0.17829199
0.42811254 -0.34064046 0.92258382 0.042184532 0.11399832 -0.091278821 0.15200979
0.43230614 -0.34113458 0.92281544 0.057325948 0.093928307 -0.081651479 0.13702466
0.43758637 -0.34185249 0.92318553 0.056416474 0.067196041 -0.064951986 0.1091645
0.44275913 -0.34199923 0.9222002 0.041397914 0.073399872 -0.070672601 0.10998157
0.44746634 -0.34305951 0.92257631 0.044916172 0.046931177 -0.048031062 0.08078973
0.4531697 -0.34247088 0.92235702 0.018232115 0.048265696 -0.049295753 0.071358666
0.45760828 -0.34262237 0.92287695 -0.014965691 0.03877604 -0.044271588 0.060725007
0.46110484 -0.34292781 0.92389917 -0.053607538 0.034241885 -0.051791072 0.082027987
0.39995474 -0.3360562 0.92341751 0.020954989 0.16279696 -0.10455474 0.19461155
0.40330827 -0.33577833 0.92297769 0.020766824 0.16473426 -0.10167959 0.19469817
0.4079462 -0.33601385 0.9225266 0.017757885 0.17007883 -0.10693592 0.20168649
0.4128339 -0.3371588 0.92297757 0.01443997 0.16615458 -0.11016974 0.19988303
0.41751385 -0.33680442 0.92248398 0.014070794 0.16545649 -0.10984257 0.19909602
0.42241532 -0.33738059 0.9224695 0.016766496 0.15221953 -0.10129949 0.18361233
0.42698947 -0.33787009 0.92277253 0.032409407 0.11934999 -0.084551632 0.14981245
0.43264502 -0.33768025 0.92221874 0.058183629 0.09909004 -0.077118456 0.13838868
0.43712682 -0.33823031 0.92198592 0.060242377 0.068664908 -0.057637721 0.10800982
0.44184855 -0.33856931 0.92158741 0.04700955 0.067273438 -0.055974007 0.099341348
0.44793984 -0.33923215 0.92132944 0.043503109 0.05659017 -0.049428165 0.086822301
0.45334727 -0.33945444 0.92253685 0.041612133 0.049014121 -0.044576347 0.078236848
0.45719096 -0.33920541 0.92216623 0.017361671 0.056253254 -0.052590638 0.078940682
0.37434712 -0.33031929 0.92404008 -0.0068153813 0.14633612 -0.079865277 0.16685075
0.37800565 -0.33093071 0.92434132 0.011559546 0.15748683 -0.090641886 0.18207601
0.38191399 -0.33079821 0.92427611 0.023907907 0.15388417 -0.089157283 0.17944622
0.38789389 -0.33171228 0.92354643 0.022719085 0.15480416 -0.091451198 0.18122861
0.39322826 -0.33132657 0.92234355 0.01503963 0.15373546 -0.083514422 0.17560023
0.39748856 -0.33218688 0.9226563 0.013535447 0.15953244 -0.089225084 0.18328919
0.40230557 -0.33264315 0.9228428 0.023808278 0.16554071 -0.098354936 0.19402127
0.40751055 -0.33241469 0.92223567 0.025407739 0.16911316 -0.098314345 0.1972575
0.41253981 -0.33273882 0.92236072 0.019259304 0.16080512 -0.091723621 0.18612477
0.41692096 -0.33301106 0.92243725 0.013070896 0.15829758 -0.088085175 0.1816259
0.42228773 -0.33261788 0.92196536 0.018762946 0.14271989 -0.076737523 0.16312468
0.42756966 -0.33252332 0.9210971 0.025095522 0.12568259 -0.068287134 0.14522062
0.43203768 -0.33342624 0.92143345 0.038759571 0.096912637 -0.057169974 0.11900744
0.43533033 -0.33339152 0.92012757 0.045878455 0.090274021 -0.055540323 0.11549441
0.55753732 -0.33403999 0.92480886 0.46846491 -0.23297928 -0.20247939 0.56101394
0.56163615 -0.3330712 0.92464733 0.52329642 -0.23239152 -0.31075075 0.65146834
0.35200307 -0.32562026 0.92409694 0.0057149306 0.13762856 -0.075895071 0.15727155
0.35731608 -0.32631055 0.92471898 0.010860637 0.1432137 -0.078752279 0.16379878
0.36326987 -0.32582459 0.92292786 0.010514662 0.14820126 -0.076444268 0.1670865
0.36775512 -0.32607132 0.92404205 0.0074037537 0.15007938 -0.076677233 0.16869509
0.3739576 -0.32800162 0.92443216 0.00054495037 0.15704966 -0.084787428 0.17847632
0.3774814 -0.32730341 0.92320049 0.0097185597 0.1607118 -0.082827479 0.1810611
0.38293153 -0.32710588 0.92216933 0.0090066195 0.14448334 -0.069160402 0.16043602
0.38745138 -0.32728729 0.92251319 0.017246597 0.13657348 -0.063790023 0.1517199
0.39233455 -0.32765263 0.92293751 0.020615175 0.14989445 -0.072590828 0.16781764
0.39763209 -0.32752517 0.92205399 0.027502842 0.1624971 -0.081708103 0.18395089
0.40283698 -0.32781345 0.92226362 0.026503511 0.1635194 -0.081616014 0.18466783
0.40736046 -0.32788813 0.92220992 0.021852806 0.16835964 -0.082113981 0.18858743
0.41223025 -0.32778141 0.92135441 0.010621272 0.15462668 -0.070197046 0.17014654
0.41730747 -0.32794541 0.92076993 0.014227048 0.14817986 -0.064674467 0.16230361
0.42166749 -0.32920191 0.92095989 0.013947956 0.1340051 -0.057516873 0.14649267
0.42532727 -0.3296324 0.92041552 0.019594889 0.13099656 -0.058177173 0.14466734
0.35339248 -0.32225615 0.92310435 0.00052732974 0.13127278 -0.060991049 0.14475057
0.35737091 -0.32243472 0.922755 0.013850518 0.14409423 -0.069880307 0.16074279
0.36238259 -0.32253721 0.92294574 0.012248583 0.14145659 -0.067040414 0.15701723
0.36635906 -0.32210067 0.92215478 0.0031876266 0.13224745 -0.055696309 0.14353266
0.37262717 -0.32239091 0.92229742 0.00059084222 0.13576898 -0.055837929 0.14680408
0.37738886 -0.32228774 0.92230201 0.0055693835 0.14041036 -0.05729717 0.15175328
0.38259885 -0.32277966 0.92283243 0.015005358 0.13432243 -0.054714352 0.14581268
0.38699695 -0.32250312 0.92187804 0.019039985 0.1392604 -0.055702478 0.15119109
0.3927272 -0.32297543 0.92211974 0.015010439 0.13957368 -0.053943992 0.15038644
0.39702028 -0.32254043 0.92168093 0.028374679 0.14977032 -0.060199469 0.16389096
0.40206662 -0.32302582 0.92109692 0.027224518 0.14557654 -0.057009131 0.15869386
0.40717399 -0.323475 0.92076254 0.030498758 0.15034044 -0.057474732 0.16381626
0.41205728 -0.32442588 0.92061484 0.023278456 0.14636357 -0.055755138 0.15834399
0.35455838 -0.3182267 0.92335945 0.0094235167 0.13887566 -0.056565791 0.1502496
0.35718507 -0.3171151 0.92208517 0.017689787 0.13598172 -0.052114636 0.1466966
0.36258754 -0.31755599 0.92230099 0.0015842654 0.11598799 -0.039068192 0.12240117
0.36696684 -0.31751364 0.922683 0.0031001344 0.11905456 -0.03928721 0.12540768
0.37213022 -0.31762144 0.92190069 0.0033096336 0.11362057 -0.036031157 0.11924274
0.37848172 -0.31780365 0.92184025 -0.0067544654 0.11493159 -0.033217669 0.11982615
0.38279822 -0.31787783 0.92195922 0.0078813769 0.11104645 -0.032805741 0.1160588
0.38684514 -0.31753665 0.92160809 0.023453303 0.11517613 -0.034841716 0.12259503
0.39250407 -0.31818163 0.92102522 0.027826183 0.12317833 -0.037897855 0.13184628
0.39754102 -0.31772405 0.92072976 0.029744819 0.12134869 -0.035872012 0.1299887
0.40237603 -0.31783819 0.92114908 0.028541431 0.12637593 -0.035426021 0.13431489
0.40600467 -0.31845063 0.92133874 0.020862829 0.12095095 -0.031035483 0.12660013
0.35678476 -0.31282133 0.92275542 -8.7175518e-05 0.12726867 -0.03566879 0.13217255
0.36238056 -0.31256127 0.92244285 0.0021882243 0.10441911 -0.025468171 0.1075024
0.36796418 -0.31246459 0.92175305 -0.0049321763 0.11254314 -0.026760131 0.11578596
0.37256962 -0.31352028 0.92122906 -0.0063260309 0.09415704 -0.021627903 0.096815974
0.37701368 -0.3126424 0.92052251 -0.0051630139 0.10806486 -0.023076773 0.11062191
0.38236961 -0.31271294 0.92115623 0.012308445 0.096389666 -0.020013064 0.099211842
0.38765833 -0.3124046 0.92094213 0.020115349 0.094891243 -0.01851964 0.098751977
0.392398 -0.31261635 0.9212262 0.032806981 0.095655568 -0.019945085 0.10307323
0.39636654 -0.31269264 0.92060852 0.026707269 0.1001719 -0.019123852 0.10542016
0.35832587 -0.30728197 0.9223119 -0.017842684 0.083637178 -0.010857314 0.086205684
0.36216828 -0.30796123 0.92189127 0.020043161 0.084308326 -0.016106337 0.088142142
0.36685067 -0.30822986 0.92137831 -0.0064180307 0.089023374 -0.013311207 0.090241566
0.37103531 -0.30662176 0.92121744 0.00033251196 0.07727024 -0.0089518726 0.077787764
0.37664703 -0.30759147 0.92041874 -0.0049929582 0.077467822 -0.0083452761 0.078075841
0.38223884 -0.30800048 0.92100894 -0.00042014569 0.079714894 -0.0086089671 0.08017952
0.388484 -0.30803984 0.92089957 0.029202811 0.074974909 -0.01026842 0.081114009
0.39161319 -0.30788761 0.92006415 0.0079202652 0.075854287 -0.0071634352 0.07660234
0.35938898 -0.3039116 0.9222706 -0.01161303 0.078941971 -0.0066052079 0.080064513
0.36204818 -0.30209762 0.92148417 0.00092411041 0.05600521 -0.002817601 0.056083657
0.36786529 -0.30240783 0.92116904 -0.010630392 0.049634933 -0.00080761313 0.05076696
0.37203699 -0.30270016 0.92105389 -0.0089472719 0.06399481 -0.0021996796 0.064654678
0.37546283 -0.30463883 0.92082888 -0.0017913207 0.061455145 -0.0033269227 0.061571196
0.38422552 -0.30230266 0.92032474 -0.00040306523 0.047473982 -7.0899725e-05 0.047475748
0.38803923 -0.30220377 0.92077476 0.005011905 0.041368201 0.00019821525 0.041671172
0.39981723 -0.30214062 0.92003465 0.015469525 0.021060761 -0.00036254525 0.026134141
0.56073821 -0.30052954 0.92135239 0.065530241 0.19255933 0.21663404 0.29715922
0.3620297 -0.29761967 0.92180401 -0.011587456 0.021302737 0.0018021464 0.024317143
0.36726668 -0.29764143 0.92121994 -0.0016779043 0.025073579 0.0012753904 0.025162002
0.37337446 -0.29647762 0.92086208 0.0069691055 0.020790154 0.0008828342 0.021944894
0.38490361 -0.29951367 0.92093313 -0.013949379 0.035227589 0.002394855 0.037964504
0.3852911 -0.29791999 0.9212808 -0.015418535 0.0054622702 0.0014373958 0.016420526
0.39289734 -0.29671723 0.92038006 0.0075269789 0.0027727 -0.00030130148 0.0080270832
0.52864909 -0.295605 0.92045087 0.017429769 -0.03026253 -0.59656239 0.59758371
0.53225935 -0.29588395 0.92018688 -0.0056955814 -0.056417257 -0.55823547 0.56110799
0.53617096 -0.29501981 0.92114723 -0.14035809 -0.059550285 -0.29987237 0.3364076
0.54320532 -0.29634115 0.92176396 -0.27038348 0.13732487 -0.04327926 0.30633059
0.5473001 -0.296105 0.92181218 -0.26468509 0.20636836 -0.0039517879 0.33565119
0.5523296 -0.29697457 0.92228675 -0.15220386 0.21942472 0.032015711 0.26895767
0.55757636 -0.29827359 0.92262828 0.024355888 0.16302153 0.14914864 0.22229382
0.56124735 -0.29867092 0.92228442 0.050413042 0.19271247 0.2371913 0.30974066
0.36278823 -0.2926313 0.9225933 -0.0064277127 0.006042812 0.0011592507 0.00889803
0.36730224 -0.29204696 0.92135751 0.0035772398 -0.00097605214 -0.0004003346 0.0037295565
0.37190285 -0.29279771 0.92123854 -0.0053583644 0.0051906891 0.00094211102 0.0075195008
0.37536845 -0.291832 0.92120844 -0.013223469 -0.028421737 -0.0037469268 0.031570472
0.38011336 -0.29046413 0.92008817 -0.0076957997 -0.035631813 -0.0061344504 0.03696597
0.38716581 -0.29265895 0.92052007 -0.0045448318 -0.019540504 -0.0027871728 0.020254755
0.39215612 -0.29280618 0.92105103 -0.0069252085 -0.031962126 -0.005309999 0.033132043
0.39667544 -0.29091519 0.92118663 0.0074137449 -0.034967296 -0.008120358 0.036655363
0.40296167 -0.29166523 0.92043239 0.02270126 -0.046353891 -0.012706518 0.053155299
0.40664011 -0.2920824 0.9206993 -0.00034443289 -0.052567668 -0.012602419 0.054058298
0.41887316 -0.29058301 0.92010832 -0.030126359 -0.071541257 -0.020874858 0.080383509
0.42247087 -0.29128027 0.92024255 -0.030616317 -0.065967269 -0.018829346 0.075123787
0.49667606 -0.29048491 0.92077184 0.069969498 0.63220334 -0.75231946 0.98517072
0.50275499 -0.2909238 0.92066497 0.081697688 0.64829993 -0.73848999 0.98607039
0.5076943 -0.29120529 0.92039096 0.095798686 0.65601385 -0.73419333 0.98922771
0.51283717 -0.2910783 0.92151922 0.1265475 0.69180703 -0.69390213 0.98798352
0.51722795 -0.29101834 0.92102873 -0.008250393 0.091858476 0.095809788 0.13298708
0.52214497 -0.2920033 0.92208183 -0.070217334 -0.034584641 -0.092570022 0.12122615
0.52721369 -0.29214627 0.92196774 -0.07392104 -0.068900168 -0.29033351 0.30741683
0.53285581 -0.29233995 0.92194432 -0.12120473 -0.037704825 -0.19318676 0.23115657
0.5369482 -0.29304096 0.92246401 -0.18519413 0.0062524378 -0.13602246 0.22986533
0.54202086 -0.29362059 0.92253512 -0.23125976 0.095768929 -0.040825993 0.25361297
0.54751009 -0.29435557 0.92251909 -0.26490176 0.19965258 0.021817386 0.3324306
0.36417922 -0.28786141 0.92286426 -0.01302672 -0.038400255 -0.0071986318 0.041183677
0.36720079 -0.28683233 0.92179388 0.0036038496 -0.044891499 -0.010522962 0.046248969
0.37257892 -0.28719914 0.92199546 -0.015702635 -0.040030248 -0.0082296431 0.043780368
0.37669787 -0.28711548 0.92163008 -0.030652793 -0.052616537 -0.012236178 0.062111333
0.38087821 -0.28729033 0.92077816 -0.0026682038 -0.054902971 -0.014066041 0.056738954
0.38865966 -0.28705376 0.9213227 -0.019463899 -0.058246046 -0.015878856 0.063431717
0.39259744 -0.28699532 0.921345 -0.016341962 -0.072319634 -0.020965904 0.077050366
0.3965213 -0.28790921 0.92124635 0.0066950358 -0.066391125 -0.019587219 0.069543257
0.40264556 -0.28718275 0.92127496 0.0068072081 -0.083336435 -0.028838098 0.088447362
0.40815768 -0.28673938 0.92120844 -0.0028583892 -0.079440787 -0.027830213 0.084223099
0.41226041 -0.28630483 0.92089581 -0.025983164 -0.082685485 -0.031284869 0.092145301
0.41744494 -0.28781545 0.92054766 -0.030556299 -0.076593608 -0.026990712 0.086768463
0.42244664 -0.28639194 0.92122787 -0.028423723 -0.057463124 -0.024695605 0.068700738
0.42743182 -0.28627738 0.92161733 -0.028584694 -0.050838247 -0.024851322 0.063397162
0.43175328 -0.28604835 0.92128855 -0.024076294 -0.045486033 -0.023264527 0.05647907
0.43730783 -0.28650883 0.92045164 -0.026442282 -0.053585202 -0.028711081 0.066294
0.44238189 -0.28675824 0.92051595 -0.032871716 -0.053702876 -0.031687975 0.07048884
0.44786736 -0.28707644 0.92071635 -0.030194823 -0.067029759 -0.041211069 0.084279709
0.45341077 -0.28656918 0.92106241 -0.023707816 -0.076357305 -0.052151114 0.095458038
0.4570151 -0.28657386 0.92119598 -0.012269515 -0.084527954 -0.059148312 0.10389436
0.46212783 -0.28637818 0.92140156 -0.020130124 -0.097940847 -0.072798491 0.12368206
0.46795458 -0.28673041 0.92147726 0.021410279 0.59907633 -0.7854315 0.98805541
0.47215393 -0.28638932 0.92133063 0.025519131 0.61151266 -0.77038682 0.98391807
0.47726902 -0.28639385 0.92146945 0.038060021 0.60854709 -0.76855826 0.98105043
0.48293957 -0.2862348 0.92169368 0.046917081 0.62519187 -0.75652552 0.98254615
0.48743215 -0.2873309 0.92161787 0.063969657 0.630732 -0.75098693 0.98280025
0.49254939 -0.28657356 0.92186302 0.072739467 0.64533913 -0.73710847 0.98238611
0.49748433 -0.28718182 0.92211485 0.084472567 0.66067064 -0.72160113 0.98200279
0.50274026 -0.28749856 0.92215431 0.085135937 0.67817032 -0.7054221 0.98223388
0.507393 -0.28705502 0.92226458 0.093516529 0.69312328 -0.69072646 0.98298943
0.51224011 -0.28773904 0.92236704 0.1114956 0.707479 -0.67357761 0.98319101
0.51763904 -0.28819615 0.9226743 0.0012404695 0.10060742 0.1179581 0.15504034
0.52301085 -0.2890009 0.9226141 -0.041907378 0.013380855 0.0040019453 0.044173419
0.52661806 -0.28919831 0.92268425 -0.076096483 -0.022847831 -0.096812159 0.12524094
0.53016651 -0.28976917 0.92296469 -0.095422797 -0.016826987 -0.10871908 0.14563137
0.3669247 -0.28231874 0.92252624 -0.019568849 -0.070106052 -0.02148965 0.075892054
0.37265086 -0.28232977 0.92211121 -0.014703632 -0.075121865 -0.02447331 0.080364384
0.37792811 -0.28224605 0.9224984 -0.01966203 -0.066542953 -0.02223891 0.072863773
0.38239995 -0.28192276 0.9212386 -0.011685442 -0.072907299 -0.025945246 0.078263529
0.38863033 -0.28257895 0.92241043 -0.026120815 -0.085486591 -0.031272173 0.094700597
0.39272425 -0.28224689 0.92198384 -0.019026836 -0.082780913 -0.03186205 0.090718746
0.39761683 -0.28227156 0.92228198 -0.0017990824 -0.091843873 -0.038559616 0.099626191
0.40256858 -0.28255594 0.92191279 0.0065821167 -0.092269793 -0.040651649 0.10104255
0.40756997 -0.28255695 0.9217701 0.00015505217 -0.094946757 -0.044966817 0.10505678
0.41285625 -0.28230089 0.92212409 -0.014501614 -0.069221586 -0.035776287 0.079258233
0.41708046 -0.28208786 0.9222151 -0.013822991 -0.06105189 -0.03459233 0.071519494
0.42252016 -0.28219214 0.92234862 -0.022859465 -0.043650702 -0.027058184 0.056214627
0.42782313 -0.28215355 0.92190343 -0.032401767 -0.046331868 -0.031347066 0.064646386
0.43221107 -0.28229597 0.92215568 -0.018553987 -0.036687613 -0.025895357 0.048588071
0.43763983 -0.28274569 0.92213857 -0.02464794 -0.044372737 -0.034505993 0.061376903
0.44296473 -0.28193253 0.9220714 -0.035570018 -0.028558612 -0.025568157 0.052292936
0.44719371 -0.28195831 0.92228067 0.046166137 0.64805752 -0.75829113 0.99855661
0.45247382 -0.28207812 0.92226732 0.051188532 0.6527673 -0.75334251 0.99812341
0.45791763 -0.28184754 0.9220472 0.04141707 0.6724031 -0.73500109 0.99702948
0.46216702 -0.28221548 0.92241901 0.045844145 0.685978 -0.71978647 0.99536932
0.46795249 -0.28226745 0.92231214 0.043313049 0.69416857 -0.70958632 0.99360895
0.4726209 -0.28218213 0.9225772 0.042448927 0.69362974 -0.70565629 0.99039131
0.47747391 -0.28292838 0.92274141 0.054543085 0.68389207 -0.7072621 0.98534411
0.48258615 -0.28226036 0.92227548 0.060587786 0.6803301 -0.70555449 0.98200154
0.4875659 -0.28267875 0.92264736 0.073029444 0.67202884 -0.70657647 0.97785801
0.49211231 -0.2831547 0.92278415 0.091597825 0.67887628 -0.69737303 0.97754401
0.49757057 -0.28330985 0.92237812 0.092978328 0.69092017 -0.6855762 0.97776806
0.50217718 -0.28380886 0.92287868 0.090818182 0.69733596 -0.68045837 0.97854429
0.50702256 -0.28439748 0.92296511 0.098259956 0.70926553 -0.66564095 0.97764534
0.36747912 -0.27749169 0.92265385 -0.028753411 -0.075524569 -0.029859126 0.086152695
0.37202665 -0.27807787 0.92286032 -0.021377275 -0.089131758 -0.036752492 0.098753244
0.37784088 -0.27735749 0.92241561 -0.021900155 -0.090605274 -0.040166199 0.10150003
0.38197306 -0.27714118 0.92172527 -0.0098475311 -0.093641728 -0.043227404 0.10360674
0.38750303 -0.27712765 0.92229676 -0.038855202 -0.088834479 -0.042326719 0.10579623
0.39237309 -0.27775893 0.92270815 -0.021802718 -0.098259985 -0.047490567 0.11129123
0.3976649 -0.27728567 0.92245293 -0.005954212 -0.089663431 -0.048868984 0.10228959
0.40243295 -0.2776421 0.92254317 0.0038018106 -0.089700177 -0.05411613 0.10482906
0.40717676 -0.2775853 0.92246997 0.0029530795 -0.0824911 -0.053755075 0.098504372
0.41269031 -0.27741295 0.92254627 -0.0087747602 -0.051214159 -0.036884397 0.063720837
0.41772494 -0.27713761 0.92227399 -0.0038364138 -0.04180634 -0.032034427 0.052808076
0.42229748 -0.27797708 0.92280656 -0.021206085 -0.038702875 -0.032375008 0.054733463
0.42723626 -0.2777378 0.9225058 0.042689983 0.6466102 -0.75993514 0.99871349
0.43300596 -0.27701071 0.92208606 0.048040241 0.67551708 -0.73493719 0.99938178
0.43742949 -0.2773726 0.92243844 0.062763095 0.69535661 -0.71433383 0.99886578
0.44248658 -0.27780202 0.92264271 0.068018109 0.70812941 -0.69965768 0.99779487
0.44731891 -0.27701283 0.9222275 0.068991669 0.71779644 -0.69002974 0.99806446
0.45237291 -0.27795985 0.92285645 0.03115616 0.037420481 0.043084741 0.065017641
0.45750779 -0.27783671 0.92261243 0.022090387 0.043490946 0.049542457 0.06952627
0.4629887 -0.27818695 0.92283559 0.019145988 0.061437607 0.073266655 0.097514875
0.46697187 -0.27870956 0.92270887 0.056464218 0.74753964 -0.65339452 0.99444866
0.47256184 -0.27848184 0.92253709 0.07116542 0.75039291 -0.64633965 0.99292952
0.47746563 -0.27901995 0.92254817 0.069287427 0.73745662 -0.65535086 0.98900342
0.48204017 -0.27932873 0.92285573 0.081701756 0.72476327 -0.65992045 0.98359138
0.48501 -0.27978668 0.92134678 0.082126833 0.69305801 -0.68732917 0.97953844
0.36901158 -0.27255511 0.92266428 -0.02524958 -0.10523544 -0.055604786 0.12167141
0.37255523 -0.27217892 0.92220837 -0.046048589 -0.10148759 -0.055728674 0.12460292
0.37712121 -0.27279684 0.92279035 -0.037950233 -0.10138148 -0.055793047 0.12178378
0.38155979 -0.27263865 0.92249328 -0.028446313 -0.1119373 -0.064176708 0.13212797
0.3878178 -0.27232349 0.92218924 -0.023364313 -0.10738291 -0.063789785 0.12706737
0.39269897 -0.27272254 0.92267102 -0.029122401 -0.087707996 -0.05517894 0.10763606
0.39725709 -0.27268255 0.92264169 -0.018494861 -0.078591064 -0.053753823 0.096995302
0.4020116 -0.27246577 0.92235821 0.0078372955 -0.067188859 -0.049380451 0.083750792
0.40776873 -0.27238223 0.92238992 0.012006981 -0.050185353 -0.040802687 0.065784469
0.41228333 -0.27278596 0.92275703 0.045635268 0.66712487 -0.74006826 0.99741626
0.41739717 -0.27272981 0.92274624 0.049883179 0.68698525 -0.72262657 0.9983117
0.42278281 -0.27245849 0.92255753 0.053001173 0.70325464 -0.70810592 0.99939489
0.42755517 -0.27281997 0.92274445 0.012675302 0.015355796 0.017122269 0.026260918
0.43251684 -0.27349779 0.92329133 0.022425074 0.025229514 0.030585557 0.045550946
0.4373661 -0.27367181 0.92244339 0.021099323 0.027682722 0.032708228 0.047763404
0.44203115 -0.27402532 0.92288411 0.026737401 0.027927101 0.035054654 0.052188508
0.4468061 -0.27408674 0.92320961 0.028903568 0.036009848 0.046596885 0.065600269
0.45285019 -0.27454814 0.92359561 0.03098044 0.027962089 0.03753829 0.056131888
0.36962202 -0.26883695 0.92424965 -0.034210701 -0.11984275 -0.073328674 0.14460205
0.37214026 -0.26798025 0.92242205 -0.027047735 -0.11453362 -0.073618233 0.13881345
0.37810957 -0.26788104 0.92307508 -0.027289815 -0.11669356 -0.078373492 0.143194
0.38204947 -0.26839858 0.92307144 -0.028533578 -0.11015698 -0.072666556 0.13501538
0.38711053 -0.26926261 0.92375451 -0.029196762 -0.092709422 -0.061448067 0.11499283
0.39380708 -0.26837048 0.92346066 0.032133728 0.60546887 -0.78873897 0.99485391
0.39764199 -0.26859969 0.92356408 0.038471296 0.63044846 -0.77052271 0.99631852
0.40161109 -0.26899812 0.92345929 0.024573348 0.65483105 -0.75111699 0.99678701
0.40789646 -0.2691493 0.92292243 0.038468771 0.68709433 -0.72260892 0.99786878
0.41289306 -0.26908243 0.92387122 0.01076326 0.032658458 0.036145449 0.049889036
0.41664147 -0.26927766 0.92417479 -0.0016921889 0.030938089 0.034218729 0.046162218
0.4215652 -0.26953191 0.92435455 0.006667329 0.026148587 0.031227291 0.041271608
0.37489983 -0.26453415 0.92419922 0.021443626 0.58281493 -0.79735827 0.98788327
0.37869352 -0.26464877 0.92470038 0.022048458 0.58906442 -0.79378217 0.98872298
0.45779461 -0.35017267 0.92949378 -0.050046396 0.044936985 -0.072377384 0.098805167
0.43731564 -0.34510693 0.92798132 0.058466256 0.039217502 -0.056971043 0.090564981
0.44122991 -0.34521306 0.92704725 0.04641176 0.040483654 -0.052812129 0.08113014
0.44782028 -0.34606895 0.92704928 0.044330254 0.034582943 -0.045964301 0.072621405
0.45251885 -0.34753048 0.9278354 0.024493834 0.049277812 -0.066940546 0.086656146
0.45745787 -0.34691831 0.92756999 -0.063412249 0.027847707 -0.049963206 0.085398652
0.56084931 -0.34687972 0.92975694 -0.062275525 0.097173095 -0.032274514 0.11984363
0.40854907 -0.34039283 0.92950284 0.0060833544 0.13634565 -0.11360937 0.17757881
0.41233984 -0.3407515 0.92877018 0.0070022941 0.12582731 -0.10546944 0.16433303
0.41734818 -0.3412278 0.92845321 0.0077516809 0.10835353 -0.09605068 0.14500451
0.4228248 -0.34119818 0.9275254 0.024660308 0.11500758 -0.10062224 0.15478924
