# .PCD v0.7 - Point Cloud Data file format
VERSION 0.7
FIELDS x y z
SIZE 4 4 4
TYPE F F F
COUNT 1 1 1
WIDTH 1343
HEIGHT 1
VIEWPOINT 0 0 0 1 0 0 0
POINTS 1343
DATA ascii
-0.046628147 -0.208674 0.84988111
-0.033072911 -0.20035096 0.84835339
-0.024272349 -0.20079464 0.84863919
-0.015745178 -0.20289887 0.84913242
-0.0055365204 -0.20394042 0.84880185
0.0046172161 -0.20494673 0.84847164
0.014416303 -0.20272988 0.84880388
-0.12314611 -0.19396338 0.84835345
-0.11504965 -0.19453757 0.84835356
-0.10400785 -0.19397707 0.84752023
-0.094791584 -0.19556744 0.84676242
-0.085359246 -0.19709575 0.84786761
-0.07399258 -0.19517289 0.84894961
-0.064500749 -0.19765379 0.8491016
-0.054326128 -0.19884375 0.84835356
-0.044205546 -0.19956142 0.84835356
-0.034756742 -0.19381809 0.84949613
-0.025461618 -0.19593735 0.84957951
-0.014841654 -0.19393869 0.84856981
-0.0074683386 -0.19867304 0.84856963
0.0049681808 -0.19361845 0.84970421
0.01524048 -0.19458416 0.84926057
0.021346105 -0.19266401 0.84948236
-0.13273104 -0.18219332 0.84710062
-0.12649208 -0.18559566 0.84585208
-0.11469346 -0.18244168 0.84543663
-0.10690027 -0.18744563 0.84543675
-0.091023482 -0.18016806 0.84988111
-0.085047185 -0.18400541 0.84988093
-0.078217134 -0.18839093 0.84988111
-0.062886186 -0.18014552 0.84551746
-0.054202683 -0.18065818 0.84673595
-0.045369633 -0.18326063 0.84784329
-0.035078518 -0.18346496 0.84740216
-0.025485067 -0.18494923 0.84704328
-0.014381482 -0.18291993 0.84737831
-0.0047892188 -0.18547602 0.84784883
0.0052473405 -0.18447454 0.84694535
0.013919935 -0.18691896 0.84674162
-0.13213217 -0.17288378 0.84583491
-0.12548681 -0.1757237 0.84547681
-0.11575033 -0.1768256 0.84550619
-0.10407498 -0.17515756 0.8472203
-0.095169164 -0.17745262 0.84745657
-0.084543467 -0.17860967 0.84551758
-0.074699253 -0.17930777 0.84551758
-0.065544523 -0.17461713 0.84856331
-0.055073012 -0.1751606 0.84937763
-0.044334915 -0.17500131 0.84856981
-0.035656705 -0.17622682 0.8489477
-0.024941457 -0.17441365 0.84970427
-0.015015804 -0.17415702 0.84881711
-0.0057129767 -0.17681538 0.84837353
0.0073138694 -0.17245027 0.84957564
0.015258725 -0.17586228 0.84944326
0.02074597 -0.17265366 0.84904593
-0.1354025 -0.16679622 0.8458975
-0.12365753 -0.16211754 0.84781837
-0.11492866 -0.16481875 0.84988111
-0.10895237 -0.16865605 0.84988111
-0.082078315 -0.16134775 0.84978163
-0.074775316 -0.16481254 0.8491292
-0.065095492 -0.16209243 0.84701377
-0.056055106 -0.16410242 0.8468926
-0.044380955 -0.16209514 0.84701139
-0.034887362 -0.16451058 0.84754336
-0.02484251 -0.1639521 0.84693813
-0.015379245 -0.16462992 0.84662431
-0.0054376181 -0.16447 0.84778857
0.0045231865 -0.16531341 0.84736246
0.013889488 -0.16628829 0.84709138
-0.13206361 -0.15547459 0.84786618
-0.12548119 -0.15711264 0.84726202
-0.11489825 -0.15688089 0.84521604
-0.1053157 -0.15756047 0.84521604
-0.095532559 -0.15528156 0.84770596
-0.085286617 -0.1573438 0.8472966
-0.07552392 -0.15687396 0.84722793
-0.065115325 -0.15513831 0.84913683
-0.054851096 -0.15520886 0.84970421
-0.044686876 -0.15463187 0.84875369
-0.035230312 -0.15786248 0.84837347
-0.023396196 -0.15273158 0.84957552
-0.014088527 -0.15412176 0.84943014
-0.0048166863 -0.15283467 0.84897548
0.0050465204 -0.15302253 0.84854227
0.014017435 -0.15407017 0.84863973
0.021197647 -0.15270776 0.84942406
-0.13250405 -0.14364129 0.84759814
-0.12587383 -0.14416306 0.84771937
-0.11434101 -0.14262944 0.84952897
-0.10495465 -0.14510296 0.84960264
-0.094752587 -0.14375623 0.84903526
-0.086173467 -0.14613667 0.84908199
-0.074803084 -0.14445119 0.8495515
-0.064745419 -0.14610967 0.84934223
-0.055288706 -0.14616607 0.84889847
-0.044931479 -0.14678028 0.84927374
-0.034930538 -0.14678544 0.84950632
-0.025347361 -0.14680384 0.84913987
-0.01572142 -0.14674145 0.84856397
-0.005244697 -0.14498967 0.84746373
0.0053975871 -0.14424716 0.84838843
0.015220748 -0.14550401 0.84900492
-0.13235722 -0.13304734 0.84685534
-0.12615812 -0.13425753 0.84853297
-0.11506029 -0.13487965 0.84917575
-0.10495995 -0.13607442 0.84856981
-0.094432421 -0.13414067 0.84932578
-0.085569099 -0.13548508 0.84970421
-0.075119369 -0.1336707 0.84856361
-0.066343181 -0.1378852 0.84837353
-0.054106276 -0.13301285 0.8495754
-0.044918206 -0.13600031 0.84928596
-0.034444034 -0.13391778 0.84876949
-0.025256 -0.13227972 0.84841907
-0.016006848 -0.13453235 0.84832501
-0.004803048 -0.13251808 0.8490957
0.004162197 -0.1350438 0.8491056
0.01515436 -0.13362421 0.84918582
0.021604948 -0.13408166 0.84918547
-0.1324787 -0.12598981 0.84763402
-0.12478507 -0.12355306 0.84860075
-0.11570513 -0.12582523 0.8489548
-0.1048061 -0.12407839 0.8494451
-0.09489242 -0.12591814 0.84922671
-0.085399084 -0.12600493 0.84874266
-0.074604787 -0.1254226 0.8492415
-0.065083995 -0.12675583 0.8494156
-0.055003457 -0.12618263 0.84895098
-0.04487396 -0.12742831 0.84865654
-0.035871591 -0.12667207 0.84784675
-0.024555773 -0.12312014 0.84828025
-0.015108968 -0.12463281 0.84848666
-0.0057776859 -0.12492617 0.84819013
0.0058079613 -0.12384596 0.8482089
0.014657282 -0.1250149 0.84839237
0.020368293 -0.12598009 0.84805405
-0.13240504 -0.11617145 0.84737414
-0.12275407 -0.11160888 0.84970391
-0.11479444 -0.11368307 0.84688097
-0.10482492 -0.11254237 0.84645087
-0.095675744 -0.11460654 0.84590143
-0.0849953 -0.11325029 0.84747231
-0.075061291 -0.11454884 0.84672803
-0.064809918 -0.11529389 0.84637493
-0.054568879 -0.11439658 0.84650099
-0.045424938 -0.11463375 0.84705245
-0.03507892 -0.11359312 0.84790707
-0.026314914 -0.11486901 0.84856647
-0.014765155 -0.11259833 0.84980595
-0.0044613718 -0.11298041 0.84924024
0.0041034962 -0.11586021 0.84918863
0.01488679 -0.1147011 0.84980601
0.021176599 -0.11514714 0.84980625
-0.13265021 -0.1074631 0.84779632
-0.12595789 -0.10360937 0.84814465
-0.11475165 -0.10607415 0.84910047
-0.10386749 -0.10419913 0.84970367
-0.094894275 -0.10682426 0.84969109
-0.084655307 -0.1043325 0.84906542
-0.075045399 -0.10488579 0.84877503
-0.065136775 -0.10593855 0.84860498
-0.05535974 -0.10517319 0.84903038
-0.044732109 -0.10515787 0.84878671
-0.035052702 -0.1036377 0.84853119
-0.023978155 -0.10318051 0.84858453
-0.014910283 -0.1053325 0.84860855
-0.0062859068 -0.10693208 0.84857726
0.0056798328 -0.10501327 0.84848338
0.014591137 -0.10516155 0.84833688
0.020556025 -0.100138 0.84735024
-0.13282897 -0.096360706 0.8473829
-0.12608796 -0.096341074 0.848674
-0.11404911 -0.094789602 0.84914339
-0.10477262 -0.094815463 0.84829575
-0.094507009 -0.096057191 0.84816402
-0.085599907 -0.094138786 0.84756792
-0.075494312 -0.094518252 0.84755027
-0.064805061 -0.09401039 0.84817815
-0.056152504 -0.095030107 0.84792364
-0.045195907 -0.095475219 0.84735054
-0.034505472 -0.094568864 0.84807265
-0.025980251 -0.097412296 0.84799856
-0.015388364 -0.097589009 0.84735054
-0.0045675547 -0.095802076 0.84780002
0.0043990565 -0.097464688 0.84799755
0.014542302 -0.094666615 0.84848464
-0.13127513 -0.083463281 0.8495757
-0.12497979 -0.086091012 0.84943485
-0.11483847 -0.08411593 0.84859133
-0.10492551 -0.083489947 0.84810352
-0.09571784 -0.084320329 0.84793723
-0.084554605 -0.082702003 0.84857202
-0.074716583 -0.084702067 0.84851879
-0.064788252 -0.084676214 0.84805965
-0.055019379 -0.084573016 0.84833455
-0.045429736 -0.085939407 0.84851563
-0.035651919 -0.087002926 0.84838009
-0.023923637 -0.083847836 0.84791273
-0.015024359 -0.084890679 0.84790814
-0.0050702449 -0.085204206 0.84818041
0.0049519441 -0.086381495 0.84830368
0.013953286 -0.085252613 0.84746903
0.020992965 -0.083474413 0.84705508
-0.13283047 -0.073743328 0.84762073
-0.12639524 -0.076195382 0.84725106
-0.11500622 -0.074512608 0.84746367
-0.10395419 -0.074744724 0.84784132
-0.095020086 -0.075064816 0.84810543
-0.085320249 -0.074935853 0.84762418
-0.07557217 -0.077165671 0.84736335
-0.064647935 -0.075256743 0.84799904
-0.055436522 -0.078259937 0.84766197
-0.044909671 -0.078800939 0.84705526
-0.034976035 -0.076142482 0.84774619
-0.025060836 -0.074983373 0.84843022
-0.015103997 -0.07273785 0.84911793
-0.0060877823 -0.073985063 0.84893817
0.0056243339 -0.071915857 0.84879762
0.014265817 -0.073357157 0.84918278
-0.13342772 -0.062684283 0.84746367
-0.12580504 -0.067695186 0.84736913
-0.1143968 -0.062277526 0.84900486
-0.10496362 -0.064993449 0.8485285
-0.095044091 -0.065419786 0.84819037
-0.084571421 -0.064485654 0.84858048
-0.074877791 -0.066853464 0.84866273
-0.064501047 -0.067264296 0.84864628
-0.05364313 -0.06547112 0.84852386
-0.044809077 -0.067569003 0.84846741
-0.034662224 -0.066227213 0.84904414
-0.026387954 -0.068331286 0.84922969
-0.0025889282 -0.06248809 0.84955227
0.0051751835 -0.065205291 0.84955168
0.015805203 -0.063674726 0.84954786
-0.13803311 -0.059727203 0.84746379
-0.12121879 -0.05789718 0.84900516
-0.11894479 -0.059357297 0.84900516
-0.10636695 -0.058523953 0.8477338
-0.091310106 -0.056627031 0.84867352
-0.088351846 -0.058526509 0.84867364
-0.057635382 -0.058456521 0.84834003
-0.040501159 -0.057953876 0.84952098
-0.038360555 -0.059328344 0.8495211
-0.010063205 -0.058046617 0.84955496
-0.0079716723 -0.059389569 0.84955496
0.017858883 -0.26145133 0.85113907
0.021125747 -0.2604107 0.85403341
-0.040877797 -0.25010967 0.85110086
-0.034522235 -0.2539342 0.85134548
-0.027429258 -0.25822476 0.85159719
0.0051548178 -0.25305268 0.85136169
0.015387632 -0.25597471 0.85470253
0.022742631 -0.25441393 0.859281
-0.053161815 -0.24196586 0.85134548
-0.046058025 -0.24641502 0.85145247
-0.038646415 -0.24859487 0.85391343
-0.013039433 -0.24144654 0.85129148
-0.0053440761 -0.24617013 0.85149205
0.0020757015 -0.24817881 0.85403335
0.015968531 -0.24311046 0.8569662
0.022550225 -0.24262591 0.85580826
-0.071181625 -0.23065178 0.85110086
-0.064826064 -0.23447634 0.85134548
-0.057514496 -0.23877236 0.85172588
-0.031061914 -0.23031718 0.85137969
-0.024358228 -0.23375042 0.85146779
-0.016490959 -0.23667705 0.85196102
-0.003914298 -0.23187301 0.85286981
0.0064749988 -0.23328188 0.85308498
0.015013487 -0.23424093 0.85344726
0.022462321 -0.23411413 0.85514557
-0.13145368 -0.22313839 0.851861
-0.12405783 -0.22366287 0.851861
-0.11454886 -0.22433721 0.851861
-0.10503992 -0.22501153 0.851861
-0.095530964 -0.22568586 0.851861
-0.08370886 -0.22301942 0.85132527
-0.07541611 -0.22736068 0.85157096
-0.066244088 -0.22828481 0.85254514
-0.055382054 -0.22853301 0.851861
-0.043653473 -0.22319576 0.85135591
-0.035720348 -0.22675557 0.85163397
-0.024672503 -0.22087729 0.85098326
-0.0150581 -0.22138399 0.85150337
-0.0049105883 -0.22227509 0.8513611
0.0047516418 -0.22467293 0.85126418
0.014865686 -0.22442526 0.85269344
0.021347661 -0.22367828 0.85080874
-0.13172215 -0.21282336 0.85080868
-0.12443312 -0.21334028 0.85080874
-0.1150615 -0.21400483 0.85080868
-0.10375722 -0.21230821 0.85097927
-0.095212407 -0.21500315 0.85129631
-0.086609349 -0.21746041 0.85149759
-0.074451141 -0.21688473 0.85080874
-0.063629739 -0.21447214 0.85095042
-0.0555357 -0.2148739 0.85130459
-0.047019362 -0.21849068 0.85155261
-0.032996006 -0.21845314 0.85183364
-0.023133075 -0.2132023 0.85352087
-0.014839637 -0.21504876 0.85236442
-0.0064648939 -0.21719843 0.8538577
0.0054058232 -0.21577671 0.85442859
0.016168607 -0.21558544 0.85559446
0.022686465 -0.21563418 0.85754788
-0.13180585 -0.20030397 0.85248899
-0.12564705 -0.20074072 0.85248899
-0.11402616 -0.20290579 0.85140014
-0.10614678 -0.20660684 0.8518452
-0.094853044 -0.20292449 0.85248899
-0.084588379 -0.20365241 0.85248899
-0.073763669 -0.20273778 0.85147804
-0.0656638 -0.20689668 0.85180861
-0.056295775 -0.20628533 0.85274643
-0.04511144 -0.20500249 0.85407233
-0.034318194 -0.20381074 0.85196024
-0.026116787 -0.20715851 0.85187191
-0.014382776 -0.20353237 0.85271454
-0.0032948575 -0.20232716 0.85142791
0.0051555778 -0.20099093 0.85152847
0.015039071 -0.20415165 0.85290903
0.021420784 -0.20647481 0.85525078
-0.13204053 -0.19156288 0.85107797
-0.12474231 -0.19406351 0.85125858
-0.11560889 -0.19383843 0.8513937
-0.10471588 -0.19224928 0.85162574
-0.093997195 -0.19249216 0.85151345
-0.084744617 -0.19435991 0.85155797
-0.075102873 -0.19523855 0.85175991
-0.064167 -0.19481492 0.85196793
-0.053909451 -0.19522735 0.8519116
-0.045080028 -0.19585267 0.85169524
-0.036086958 -0.19720198 0.85179722
-0.025570657 -0.19753116 0.85173959
-0.015520286 -0.19819769 0.85173672
-0.0064700283 -0.19747102 0.85240519
0.0041273958 -0.19705723 0.85328788
0.015428783 -0.19583142 0.8542695
0.021671241 -0.1976309 0.85545611
-0.1327778 -0.18890114 0.85320896
-0.12483032 -0.18902685 0.85355854
-0.11572179 -0.18967278 0.85355854
-0.1047051 -0.18246859 0.85140216
-0.096803755 -0.18728618 0.85163808
-0.085570589 -0.18474679 0.85471249
-0.075453997 -0.1840876 0.85539168
-0.065157413 -0.18295163 0.85174382
-0.056426559 -0.1876968 0.85187191
-0.045220323 -0.18409215 0.85275763
-0.036662783 -0.18742488 0.85249919
-0.023683432 -0.18248157 0.85358006
-0.015799377 -0.18662079 0.85345221
-0.0050333627 -0.18430278 0.85217273
0.006013934 -0.18105812 0.85084528
0.015573712 -0.1835984 0.85384226
0.021224091 -0.1852403 0.85420775
-0.13309923 -0.17038731 0.85056013
-0.12433647 -0.17112021 0.85077703
-0.11503874 -0.17416202 0.85113883
-0.10578296 -0.17262158 0.85105085
-0.095055096 -0.17272803 0.85125822
-0.084132418 -0.17321819 0.85144776
-0.074831866 -0.1749972 0.85131413
-0.064658716 -0.17495514 0.85120165
-0.054813046 -0.17555179 0.85113883
-0.044714052 -0.17594098 0.85124427
-0.035010591 -0.17653041 0.85158843
-0.025264516 -0.17725191 0.85129273
-0.015306919 -0.17830421 0.85106403
-0.0052290792 -0.17823647 0.85120785
0.0030594999 -0.17848523 0.8517617
0.015273565 -0.17486079 0.85446459
0.021662792 -0.17686769 0.85521525
-0.13350655 -0.16498807 0.85150737
-0.12538598 -0.16861728 0.85225725
-0.11433474 -0.16695406 0.85366952
-0.10552453 -0.16653657 0.8547889
-0.095352642 -0.16333562 0.85163653
-0.087267831 -0.16774009 0.85200918
-0.074863151 -0.16289669 0.85249919
-0.067389175 -0.1676957 0.85249919
-0.053995945 -0.16301812 0.85358012
-0.046043444 -0.16699618 0.85342366
-0.034943003 -0.16509803 0.85217273
-0.02492794 -0.16505383 0.85274887
-0.014997702 -0.16495518 0.85332501
-0.0047635925 -0.16344944 0.85248196
0.006301593 -0.16334747 0.85152102
0.015151422 -0.16266146 0.85264385
0.021767844 -0.16510728 0.85472745
-0.13367437 -0.15003677 0.85084534
-0.12493642 -0.15091571 0.85139984
-0.1141628 -0.1520602 0.85140312
-0.10515244 -0.15447181 0.851318
-0.095267467 -0.1526603 0.85141528
-0.08499673 -0.15355863 0.85131055
-0.074189819 -0.15364672 0.85159862
-0.064653613 -0.1549978 0.8517977
-0.055169463 -0.15517747 0.8514179
-0.045587178 -0.15618663 0.85130978
-0.034864467 -0.1562696 0.85141397
-0.024462152 -0.15717621 0.85149276
-0.014826562 -0.15766427 0.8513453
-0.0052338587 -0.1580458 0.85122484
0.0036059467 -0.15906093 0.8512302
0.01661046 -0.15599979 0.85557932
0.023310505 -0.15520597 0.8568095
-0.13179636 -0.14204694 0.85205019
-0.12565307 -0.14427908 0.85192263
-0.1168225 -0.14857949 0.85218263
-0.10521223 -0.14614448 0.85283297
-0.098115556 -0.1479665 0.85249919
-0.084606029 -0.14258841 0.85378259
-0.075166725 -0.14396279 0.85357392
-0.064699225 -0.14400756 0.85312515
-0.054396689 -0.14286441 0.8537209
-0.045008838 -0.14467669 0.85375375
-0.035223093 -0.14368159 0.85335749
-0.025050852 -0.14512108 0.85290378
-0.014982333 -0.14530128 0.85240525
-0.0042457231 -0.14165111 0.85133529
0.0052087149 -0.14211473 0.85117298
0.015221477 -0.14349666 0.85320866
0.021716304 -0.14495751 0.85561132
-0.13181625 -0.13409252 0.85132843
-0.12462383 -0.13250373 0.85111666
-0.11520134 -0.13356462 0.85133404
-0.10479046 -0.13330372 0.85153085
-0.094774969 -0.1348998 0.85187244
-0.085203797 -0.13405737 0.8510409
-0.075224124 -0.13510641 0.85093528
-0.064893298 -0.1351905 0.85120946
-0.055404738 -0.13606478 0.85118467
-0.045168504 -0.13685364 0.85102504
-0.034948394 -0.13708033 0.85091341
-0.024950553 -0.1384515 0.85082221
-0.01458375 -0.1381925 0.85114181
-0.0044911741 -0.13478301 0.8515448
0.005291081 -0.13561283 0.85175735
0.016567932 -0.13468526 0.85464317
0.021839328 -0.13669476 0.85332
-0.1310838 -0.12811707 0.85274714
-0.12501696 -0.12606737 0.85232341
-0.11545701 -0.12407812 0.85299647
-0.10598923 -0.1247707 0.85259646
-0.095407985 -0.12469398 0.85192156
-0.084609509 -0.12391896 0.85227764
-0.074901089 -0.12559669 0.8524977
-0.06504558 -0.12386741 0.85199809
-0.054900121 -0.12549286 0.85171771
-0.04482542 -0.12630618 0.85134542
-0.034797866 -0.12560791 0.85190547
-0.025291581 -0.12693733 0.85212231
-0.014648899 -0.12414385 0.85139793
-0.0062131854 -0.12774993 0.85221052
0.0016649822 -0.1282699 0.85567427
0.015863907 -0.12364396 0.85330027
0.022058092 -0.12334908 0.85667908
-0.13182536 -0.11304443 0.85358006
-0.1249143 -0.11670091 0.85347193
-0.1149715 -0.11371233 0.85217273
-0.10769618 -0.11838375 0.85217273
-0.095572054 -0.11321898 0.85332501
-0.085092619 -0.1156208 0.85287338
-0.074669987 -0.11654381 0.8522712
-0.065256521 -0.11290631 0.85107458
-0.057482786 -0.11789776 0.85107452
-0.045329422 -0.11287563 0.85257423
-0.033651847 -0.11294443 0.85147923
-0.024994288 -0.11641874 0.85179418
-0.01485786 -0.11567321 0.85390675
-0.0032976558 -0.1126826 0.85171586
0.004907418 -0.11525173 0.85146356
0.016034545 -0.11430969 0.85476875
0.021529656 -0.11469523 0.85549051
-0.1303305 -0.10385041 0.85217267
-0.12548029 -0.1069647 0.85217267
-0.11429509 -0.10257505 0.85261154
-0.10524707 -0.10542418 0.85268277
-0.094854854 -0.10396945 0.85215592
-0.084763274 -0.10520966 0.85181433
-0.074691683 -0.10642963 0.85155761
-0.064190254 -0.10472984 0.8522408
-0.053695865 -0.1045254 0.85192358
-0.044764791 -0.10391857 0.85142207
-0.036127552 -0.10704968 0.85217208
-0.025645191 -0.10593197 0.85202479
-0.014741682 -0.10326425 0.85089886
-0.0058420035 -0.10670617 0.85167944
0.0043007568 -0.10552667 0.8522383
0.016301699 -0.10462904 0.85309398
0.022410352 -0.10310585 0.85459852
-0.13147151 -0.0901682 0.85332501
-0.12508939 -0.094266124 0.85332501
-0.1138467 -0.094867788 0.85201335
-0.10444128 -0.096288137 0.85149789
-0.094992802 -0.095290124 0.85094756
-0.086243965 -0.097879715 0.85088831
-0.075057432 -0.095826 0.85175318
-0.064880513 -0.09638375 0.8513751
-0.055228747 -0.096770734 0.85163939
-0.045760222 -0.093598783 0.85352451
-0.032951191 -0.091577269 0.85104895
-0.024860824 -0.09554249 0.85128814
-0.015001497 -0.09512452 0.85355932
-0.0028647294 -0.091818437 0.85104591
0.0045937197 -0.094765052 0.85104114
0.015546419 -0.095163785 0.85429251
0.021598043 -0.095724292 0.85436261
-0.13182254 -0.084894687 0.8527981
-0.12506598 -0.0841849 0.8522712
-0.11479481 -0.085005514 0.85160559
-0.10507485 -0.086693436 0.85140383
-0.093619868 -0.08411058 0.85179573
-0.084962793 -0.084999584 0.85155004
-0.074871048 -0.084839635 0.85112733
-0.06488315 -0.085254237 0.85130042
-0.054385841 -0.083977371 0.85119575
-0.044758141 -0.083418451 0.85098982
-0.036628783 -0.086967789 0.85149258
-0.025722604 -0.086170137 0.85197157
-0.014771684 -0.082855798 0.85085779
-0.0065535032 -0.087291829 0.85096318
0.0052194381 -0.085149288 0.8520751
0.015676675 -0.084692277 0.85313648
0.02240121 -0.083812162 0.85638267
-0.13133325 -0.070478924 0.85107452
-0.12511426 -0.074472092 0.85107458
-0.11560269 -0.07630416 0.85157442
-0.10477296 -0.076384142 0.85170263
-0.096050173 -0.076189362 0.85128599
-0.085233182 -0.073759258 0.85162598
-0.074532241 -0.072192006 0.85204113
-0.063551605 -0.072828569 0.85117865
-0.055105314 -0.07587444 0.85145235
-0.045668285 -0.075007834 0.85339367
-0.032906577 -0.07197918 0.85095221
-0.024476776 -0.07600189 0.8511104
-0.014722899 -0.075283386 0.85255349
-0.0035070765 -0.072992288 0.85175878
0.0051291003 -0.074756682 0.85113704
0.015643133 -0.073585346 0.85327989
0.021707598 -0.075466581 0.85514492
-0.13366538 -0.068981484 0.85107452
-0.12374121 -0.061104465 0.85370016
-0.1144949 -0.065438248 0.85212809
-0.10252704 -0.065203778 0.85425872
-0.094654396 -0.063862965 0.853055
-0.084342465 -0.064072028 0.85298395
-0.074920423 -0.064231195 0.85220313
-0.065241888 -0.064718448 0.85176361
-0.055475682 -0.064299509 0.85194236
-0.045218445 -0.064446062 0.85145396
-0.035750806 -0.066210337 0.85165781
-0.024956139 -0.064671293 0.85319704
-0.015085571 -0.064736754 0.8527832
-0.0057676076 -0.06628716 0.85285115
0.0055037411 -0.065029621 0.85459459
0.015876904 -0.063610613 0.85487151
0.020794149 -0.064942971 0.85577446
-0.13167074 -0.057246711 0.85272443
-0.12670609 -0.057252884 0.85498196
-0.1156732 -0.058556493 0.85576987
-0.10509645 -0.057614733 0.85612237
-0.095750265 -0.057401448 0.85373718
-0.083965115 -0.058127876 0.85438013
-0.073996976 -0.058056265 0.85599953
-0.06536299 -0.058371641 0.85638005
-0.05482357 -0.05853039 0.85370654
-0.046788219 -0.058285702 0.85426837
-0.034176469 -0.058656469 0.85741204
-0.025122935 -0.058525212 0.85467172
-0.016126972 -0.058360837 0.85438699
-0.0041611479 -0.057882413 0.8567515
0.0054246476 -0.058303073 0.85502815
0.014485601 -0.058476418 0.85422003
0.020680945 -0.057153672 0.85614061
0.019852648 -0.26189831 0.86393785
0.025695449 -0.2603977 0.86263168
0.016141506 -0.25536671 0.86766773
0.023711285 -0.25620732 0.86797297
0.015910499 -0.24659225 0.86350071
0.02353791 -0.24720792 0.86358213
0.015584221 -0.23418486 0.86280513
0.025547575 -0.23367132 0.86567324
0.016010823 -0.22536205 0.86507916
0.02357319 -0.22414787 0.86298001
0.01553444 -0.21382204 0.86414951
0.023206454 -0.2135658 0.8620643
0.016165046 -0.20487581 0.86624557
0.022722989 -0.20516989 0.86553568
0.015517886 -0.19588594 0.86352104
0.022486074 -0.1949455 0.86284399
0.014848117 -0.18435557 0.86277765
0.02394338 -0.18414912 0.8678968
0.01613104 -0.17494172 0.86616158
0.021682132 -0.17636181 0.86367685
0.015847087 -0.16547877 0.86413956
0.023427842 -0.16253191 0.86617029
0.016560616 -0.15462197 0.8670879
0.022697432 -0.15451166 0.86444777
0.016430184 -0.14397274 0.86557382
0.022486258 -0.14802493 0.86378926
0.016571172 -0.13347054 0.86702728
0.02309007 -0.13297871 0.86452854
0.016411606 -0.12512499 0.8642779
0.022714872 -0.12566715 0.86374176
0.016635615 -0.11498496 0.86478049
0.022977598 -0.11323848 0.86446792
0.017274436 -0.10322215 0.86440396
0.023770962 -0.10457373 0.86243594
0.016635137 -0.095376156 0.86358929
0.023467652 -0.093830608 0.86534584
0.016874271 -0.084384285 0.86612523
0.022847403 -0.086197756 0.86408836
0.017530298 -0.076556966 0.86356282
0.022085847 -0.074091583 0.8667922
-0.12883125 -0.060605455 0.8691479
-0.10286491 -0.061422247 0.86589426
-0.0940945 -0.061608993 0.8648389
-0.085219301 -0.061549336 0.86316806
-0.075393751 -0.062159635 0.86295849
-0.065721512 -0.062707171 0.86262292
-0.054430105 -0.061429922 0.86142832
-0.044579949 -0.062021278 0.86151803
-0.035041142 -0.061688948 0.86280429
-0.025143771 -0.061971787 0.8625983
-0.015153342 -0.062598169 0.86211115
-0.0051339259 -0.063747175 0.862414
0.00085722323 -0.064172037 0.86241418
0.017454455 -0.064244606 0.86483395
0.021024771 -0.064667724 0.86385959
-0.13198102 -0.058583025 0.86914802
-0.12510391 -0.058347508 0.86386943
-0.11304058 -0.058017667 0.86618179
-0.10228692 -0.058000199 0.86333936
-0.094866246 -0.058514878 0.8626892
-0.085422456 -0.058066826 0.86463785
-0.075711839 -0.058184057 0.86290383
-0.064258598 -0.058424469 0.86603683
-0.054436356 -0.057900254 0.86481327
-0.044730268 -0.05838456 0.8631376
-0.03373808 -0.057083305 0.8669284
-0.025006151 -0.057915922 0.8663348
-0.015097517 -0.058377918 0.8648209
-0.0047891424 -0.057773151 0.86438739
0.0041934298 -0.058200862 0.86550856
0.013685294 -0.058347117 0.86595607
0.020338573 -0.057907656 0.86454058
0.016657395 -0.26244423 0.87387556
0.017616689 -0.25702941 0.87922192
0.021746958 -0.2536923 0.87621725
0.016281001 -0.24643525 0.87564582
0.024669066 -0.24647567 0.8738395
0.016058391 -0.23630579 0.87260878
0.025037406 -0.23634683 0.87578553
0.015312676 -0.22310939 0.87473774
0.02331705 -0.22641286 0.87322104
0.015727213 -0.21471129 0.8763606
0.023806643 -0.21564177 0.87219316
0.014504569 -0.20659803 0.87397128
0.027156536 -0.20079501 0.87585622
0.015972108 -0.19361283 0.87578517
0.025525993 -0.19297953 0.87253243
0.015558083 -0.18528198 0.87397301
0.026005832 -0.18614459 0.87906796
0.016309066 -0.17561878 0.8753435
0.02406271 -0.17523018 0.87591469
0.016325036 -0.16541559 0.87415475
0.022995625 -0.16217455 0.87161171
0.0158951 -0.1560649 0.87628442
0.023806695 -0.15276472 0.87861824
0.016578557 -0.14473557 0.87596196
0.023427855 -0.14405057 0.87338078
0.016450915 -0.13631678 0.87347674
0.022923874 -0.13391119 0.87716222
0.016404768 -0.12584914 0.87589985
0.022961849 -0.12499289 0.87283576
0.017254256 -0.11644261 0.87376344
0.022148881 -0.11185764 0.87856942
0.017373729 -0.10571488 0.87318039
0.02228952 -0.10314795 0.87547147
0.016784541 -0.095357843 0.8750363
0.022622993 -0.095423833 0.87521893
0.017270949 -0.085239932 0.87588108
0.021752317 -0.084851898 0.87547851
0.01725531 -0.074845172 0.87479591
0.021615047 -0.074562855 0.8772096
-0.13039087 -0.06041019 0.87761384
-0.11275914 -0.061834168 0.87839127
-0.10478624 -0.061769843 0.87612295
-0.09553232 -0.062529556 0.87637973
-0.084478989 -0.061908048 0.87405968
-0.074522592 -0.061730947 0.87478483
-0.064878963 -0.062414821 0.87478483
-0.056005705 -0.062208634 0.87547129
-0.045231719 -0.061283223 0.8728478
-0.035278585 -0.061844654 0.8723464
-0.025456596 -0.062550604 0.87217826
-0.013906571 -0.061484165 0.87176055
-0.0052555637 -0.061570153 0.87340289
0.0046204664 -0.06211729 0.87395865
0.01639712 -0.063388914 0.87571472
0.021193612 -0.066078193 0.87451339
-0.13313589 -0.057541784 0.87694871
-0.12413987 -0.057455838 0.87387544
-0.11525208 -0.058153875 0.87698543
-0.10497092 -0.057826307 0.87391573
-0.094327606 -0.05777007 0.87482464
-0.083896391 -0.058248784 0.87558091
-0.074651293 -0.058050573 0.87415665
-0.065001525 -0.057681084 0.87438107
-0.055453379 -0.058724098 0.87327343
-0.044477016 -0.057995051 0.87542653
-0.03499024 -0.058430605 0.87502134
-0.02316675 -0.05850938 0.87516332
-0.013983276 -0.058401287 0.87574905
-0.004810587 -0.058322702 0.8742553
0.0061180838 -0.057935387 0.87412888
0.01480567 -0.057731997 0.87648427
0.02045599 -0.056983266 0.87351441
0.018317597 -0.26325461 0.88663274
0.016452169 -0.25324193 0.88188344
0.02149027 -0.25491744 0.88323152
0.016057679 -0.24618344 0.88696492
0.020052075 -0.24931575 0.88727623
0.015840417 -0.23574752 0.88459665
0.023578128 -0.23121488 0.88123411
0.015448073 -0.22567172 0.883008
0.023387732 -0.22875778 0.88384992
0.015860165 -0.21598652 0.88901603
0.016470898 -0.20527214 0.88435757
0.016932413 -0.19391689 0.88638484
0.020915415 -0.195021 0.88755369
0.01590893 -0.18523034 0.88645893
0.025557447 -0.18386064 0.88221991
0.016689884 -0.17417738 0.88163334
0.016174935 -0.16476214 0.88536793
0.020494331 -0.16410382 0.88171077
0.016267953 -0.1549896 0.88310182
0.024325818 -0.15016645 0.88174158
0.016258376 -0.14475276 0.88500702
0.025927555 -0.14481795 0.8869102
0.016504087 -0.13497877 0.88613802
0.025045751 -0.13829271 0.88246822
0.016764855 -0.12558562 0.88176149
0.023721056 -0.12210518 0.88765037
0.016853174 -0.11545577 0.88530618
0.024178768 -0.11509199 0.88488716
0.016854135 -0.10540186 0.88356781
0.024155498 -0.10627709 0.88373768
0.016789634 -0.093666196 0.88764751
0.023270778 -0.09397608 0.88196272
0.017038602 -0.084791437 0.8839637
0.021914333 -0.086819783 0.8847546
0.016355375 -0.074354477 0.88583446
0.02159935 -0.07639496 0.88391966
-0.13016488 -0.060920287 0.88661176
-0.12567569 -0.060085505 0.88016397
-0.11250713 -0.061809346 0.88795549
-0.10506125 -0.061517317 0.8886171
-0.095177278 -0.062218238 0.88861698
-0.085842729 -0.062177293 0.88918388
-0.075111724 -0.061625615 0.8870557
-0.064768583 -0.062254213 0.88679272
-0.0549399 -0.062951237 0.88679242
-0.044317383 -0.061625049 0.88422489
-0.035000984 -0.061512381 0.88491791
-0.024987733 -0.062329024 0.88476139
-0.015928343 -0.06224272 0.88554162
-0.0046758866 -0.062436637 0.88555253
0.0048583993 -0.062967852 0.88501358
0.016202951 -0.064975768 0.88535297
0.021072043 -0.067989163 0.88646322
-0.13263543 -0.058271881 0.88476962
-0.12540939 -0.058547791 0.88145244
-0.11365827 -0.058654446 0.88822067
-0.1048033 -0.057965506 0.88589007
-0.094891228 -0.058082484 0.88364905
-0.084453382 -0.058740921 0.88314581
-0.075616203 -0.058166794 0.88664263
-0.065055065 -0.058376923 0.88411653
-0.055182762 -0.058409054 0.88293982
-0.045749366 -0.058399569 0.88551056
-0.034999687 -0.057907674 0.88662314
-0.026168527 -0.057942793 0.88559878
-0.016718181 -0.058000863 0.88552487
-0.0047569089 -0.05818551 0.88542902
0.0046210326 -0.058304522 0.88431567
0.015186135 -0.058095422 0.88679808
0.021117959 -0.058587119 0.8828398
0.016823439 -0.26504099 0.89704549
0.016650898 -0.25407881 0.89364672
0.02111409 -0.25492021 0.89537555
0.015257077 -0.24524729 0.89401859
0.0151238 -0.23577274 0.89603782
0.016280662 -0.22334556 0.89518368
0.017381176 -0.21437953 0.89173919
0.021217713 -0.2107486 0.89665818
0.016231436 -0.20466316 0.89657384
0.021064442 -0.20277441 0.89204204
0.016713807 -0.19523972 0.89578575
0.02095424 -0.19355686 0.89924866
0.01587194 -0.18451801 0.89602381
0.021676427 -0.18642843 0.89468211
0.01591414 -0.1750868 0.89438426
0.016252445 -0.16483934 0.89268088
0.016141947 -0.15335859 0.89694887
0.020801185 -0.15824978 0.89578509
0.016137745 -0.14627025 0.89300597
0.017514955 -0.13604037 0.89634931
0.02013902 -0.1330439 0.89537847
0.016682459 -0.12498149 0.89355606
0.020894792 -0.12705165 0.89120841
0.016826544 -0.11471123 0.89476907
0.023941988 -0.11424528 0.8950597
0.016639676 -0.10437743 0.8944006
0.023089932 -0.10619035 0.89234865
0.016983194 -0.094502181 0.89532775
0.022089181 -0.095104583 0.89591795
0.016894635 -0.085412458 0.89528537
0.021398582 -0.085513949 0.89565188
0.016776884 -0.074537918 0.8951425
0.02132616 -0.076485112 0.89377654
-0.12684929 -0.060245719 0.89815199
-0.11605988 -0.060289141 0.89381754
-0.10391227 -0.060293596 0.89761335
-0.094813444 -0.060938839 0.89761347
-0.084804736 -0.061648607 0.89761335
-0.074796014 -0.062358376 0.89761347
-0.064856157 -0.061506275 0.89874172
-0.05485411 -0.062172625 0.89836234
-0.045401745 -0.062583253 0.89785141
-0.03454788 -0.061310783 0.89665693
-0.024896773 -0.061673425 0.89637023
-0.015443035 -0.062343419 0.89624488
-0.0054715173 -0.063180573 0.89609838
0.0050559021 -0.061547909 0.89492697
0.015908549 -0.063877232 0.89471865
0.021031855 -0.066520736 0.89656037
-0.13098857 -0.05705829 0.89719832
-0.12549643 -0.057704974 0.89302009
-0.1167879 -0.057394736 0.89428914
-0.10609606 -0.057496674 0.89685774
-0.094304755 -0.057280254 0.89590687
-0.085189931 -0.058283243 0.89380932
-0.074318618 -0.05814068 0.89527351
-0.067552775 -0.058222633 0.89477968
-0.055206187 -0.058261625 0.89464599
-0.045502469 -0.058341771 0.89264411
-0.03423699 -0.057662569 0.89689177
-0.025088366 -0.058395021 0.89483505
-0.013116436 -0.058061607 0.89462519
-0.0044156024 -0.058259454 0.89577675
0.0041367416 -0.058002308 0.89495075
0.01372007 -0.057970546 0.89604229
0.020340651 -0.058421742 0.89730817
0.019181969 -0.2613678 0.90149367
0.015955243 -0.25488764 0.9052189
0.022192255 -0.25465995 0.90877694
0.015359227 -0.24397415 0.90518051
0.01653517 -0.23649108 0.90478867
0.016031345 -0.22384384 0.90629959
0.01601137 -0.21399142 0.90262204
0.020496992 -0.21838908 0.90140766
0.015640814 -0.20598733 0.90877736
0.020707805 -0.20522387 0.90636134
0.015958888 -0.19466902 0.9066509
0.015851093 -0.18522994 0.90315056
0.016799539 -0.17480068 0.90771687
0.015832884 -0.16575161 0.90472943
0.020047192 -0.16486046 0.90021259
0.016485693 -0.15451117 0.90614825
0.016092012 -0.14542437 0.9059
0.016151328 -0.13517338 0.90328276
0.017149614 -0.1241072 0.9068383
0.020367926 -0.12874055 0.90751868
0.016528953 -0.11545424 0.90470445
0.022739546 -0.11209346 0.90658784
0.017079255 -0.10511879 0.90600264
0.022890523 -0.1059921 0.90377122
0.016992658 -0.097476773 0.90271658
0.021909025 -0.092766359 0.90554541
0.016853983 -0.08433301 0.90608102
0.021304989 -0.084836721 0.90184957
0.017354626 -0.074894831 0.90534824
0.021735065 -0.074851431 0.90479982
-0.12243855 -0.062642053 0.90283817
-0.11597135 -0.062864989 0.90302461
-0.10447785 -0.062259328 0.90414822
-0.094909109 -0.062396303 0.90457302
-0.084675834 -0.062197074 0.9057045
-0.075965747 -0.062249713 0.90445656
-0.063173912 -0.062765531 0.90604985
-0.054880299 -0.063353665 0.90604979
-0.044978347 -0.063543737 0.90624785
-0.034338329 -0.063939705 0.90548176
-0.025354696 -0.063812576 0.90470445
-0.015258565 -0.0649032 0.90501291
-0.0054189181 -0.065420941 0.90486449
0.003787227 -0.066253833 0.90501273
0.016730718 -0.063783258 0.90379179
0.021017319 -0.067111537 0.90517908
-0.13083227 -0.056448136 0.90868175
-0.12505856 -0.057534877 0.90692693
-0.11542738 -0.058616124 0.90507269
-0.10538848 -0.058395103 0.90417236
-0.098340191 -0.057076473 0.90431321
-0.086620197 -0.05773861 0.90788835
-0.076061502 -0.058072533 0.90465909
-0.064532109 -0.05794901 0.90461749
-0.054252483 -0.058018394 0.90403509
-0.045225821 -0.058517769 0.90301174
-0.03510556 -0.058576107 0.90407455
-0.025139034 -0.058239438 0.90685618
-0.015874144 -0.057954699 0.90496129
-0.0059451284 -0.058236729 0.90545154
0.0055676573 -0.057940453 0.90568525
0.014433597 -0.058155604 0.90466946
0.021132467 -0.057558626 0.90551591
0.017743794 -0.26099989 0.91402811
0.021320483 -0.26158112 0.91545671
0.01661429 -0.25805482 0.91587687
0.020105824 -0.25937176 0.91664737
0.016545005 -0.24527885 0.9135254
0.020958871 -0.24446337 0.91651648
0.0156353 -0.23415726 0.91423404
0.020800332 -0.23551342 0.9113304
0.015824437 -0.22602016 0.91637909
0.015634634 -0.2126613 0.91499835
0.020443264 -0.21734026 0.9137513
0.01694674 -0.20383099 0.91445333
0.015488017 -0.19561285 0.91671777
0.020327097 -0.19546874 0.9192012
0.016068188 -0.18298265 0.91561741
0.015936654 -0.17374024 0.91188538
0.016212773 -0.16428883 0.91699058
0.020350523 -0.16256759 0.91198939
0.015995171 -0.15568532 0.91494894
0.016421147 -0.14437388 0.91342652
0.020374164 -0.14243253 0.91660035
0.016525332 -0.13446686 0.91477031
0.015676899 -0.12555766 0.91679156
0.027080288 -0.12239793 0.91770673
0.016415434 -0.11490894 0.91527539
0.026444182 -0.11295163 0.91495544
0.01661567 -0.10412408 0.91378611
0.02251298 -0.10725479 0.91703647
0.016446894 -0.09405648 0.91402489
0.022560004 -0.093769766 0.91349572
0.016245142 -0.084585547 0.91792101
0.021274509 -0.085272111 0.91529971
0.016643193 -0.074499093 0.91504031
0.021780627 -0.074936718 0.91347206
-0.1311608 -0.062947035 0.91894686
-0.12536174 -0.063192263 0.91559941
-0.11524125 -0.063913986 0.91480684
-0.10557251 -0.064859681 0.91392267
-0.094791278 -0.062371816 0.91261798
-0.085026026 -0.063214622 0.91277283
-0.074758157 -0.063942768 0.91277301
-0.065263838 -0.062349804 0.91453552
-0.05497665 -0.061652251 0.91532582
-0.044800825 -0.062280495 0.915604
-0.035298362 -0.063124232 0.91557264
-0.024588522 -0.061746921 0.91444677
-0.014796895 -0.061701454 0.91261441
-0.0048520924 -0.062192909 0.91345954
0.0044481508 -0.063115306 0.91313958
0.015889078 -0.064112924 0.91312671
0.021496428 -0.067575447 0.91469902
-0.13245067 -0.057950284 0.91669476
-0.12500168 -0.057872389 0.91377753
-0.11473445 -0.05824659 0.91483492
-0.1044574 -0.058103561 0.91526884
-0.096312284 -0.058086663 0.914554
-0.084369019 -0.058214545 0.91763014
-0.073552139 -0.058267012 0.91502404
-0.064909726 -0.058303639 0.91409063
-0.055397972 -0.057806663 0.91303134
-0.044547129 -0.058256634 0.91523916
-0.035584796 -0.058611803 0.91274273
-0.024276191 -0.057773426 0.91576558
-0.014118917 -0.058539469 0.91353637
-0.0051027392 -0.058437992 0.91512764
0.0044997018 -0.058541115 0.91337949
0.015475603 -0.057509311 0.91693377
0.020097125 -0.056215931 0.91343188
0.016556829 -0.26015955 0.92737305
0.020343972 -0.26259124 0.92737305
0.016031262 -0.25338823 0.92360204
0.022913938 -0.25425276 0.92233741
0.015350482 -0.24574323 0.92529052
0.015228395 -0.23333435 0.92538565
0.015558875 -0.22627763 0.92787653
0.015887631 -0.21730042 0.92328501
0.020479538 -0.21213849 0.92954266
0.015477323 -0.20652451 0.92804354
0.021293489 -0.20425376 0.92429614
0.015560946 -0.19755954 0.92614275
0.016138609 -0.18491484 0.92507976
0.015611821 -0.17468409 0.92446411
0.020436576 -0.17768285 0.92164075
0.016352421 -0.16451359 0.9238798
0.015800023 -0.1537618 0.92631614
0.020380754 -0.15689325 0.92619193
0.016792897 -0.14643486 0.92190999
0.020488743 -0.14013019 0.92794967
0.016124262 -0.13526875 0.92654932
0.016518809 -0.1244422 0.92568016
0.020857174 -0.12341469 0.92984188
0.015879896 -0.11515106 0.92553359
0.022306804 -0.11510628 0.92538851
0.016117318 -0.10596674 0.92225516
0.022853594 -0.10413402 0.92579609
0.016825924 -0.093880706 0.9255231
0.020968633 -0.095260948 0.92563874
0.017286718 -0.084179386 0.92298996
0.020952173 -0.082591385 0.92525589
0.017241901 -0.074674435 0.92412865
0.021787595 -0.074433826 0.92493522
-0.13096891 -0.06024117 0.92104214
-0.12544009 -0.060543701 0.92505223
-0.11508527 -0.061145931 0.92467034
-0.10413434 -0.062053375 0.92472261
-0.094733395 -0.062449854 0.92524868
-0.085361123 -0.063366532 0.92545867
-0.075499542 -0.063787006 0.92545617
-0.065356255 -0.063925445 0.92678845
-0.053546436 -0.060178529 0.92377502
-0.044571809 -0.060690943 0.92559928
-0.034617893 -0.061145607 0.92532337
-0.023882825 -0.061915997 0.92554587
-0.014386518 -0.061401401 0.92542768
-0.0051759453 -0.062223792 0.92630482
0.0054480135 -0.062547065 0.9261452
0.01591612 -0.064057082 0.92533201
0.021679636 -0.065495491 0.92527884
-0.13165382 -0.056997173 0.92674953
-0.12457069 -0.057339288 0.92396057
-0.115661 -0.057230201 0.92465299
-0.10563783 -0.057354655 0.92652589
-0.094111875 -0.057366151 0.9246974
-0.08405304 -0.057669416 0.92534673
-0.07618615 -0.058398534 0.92447096
-0.066069238 -0.058078215 0.92568177
-0.055861577 -0.057478383 0.92236149
-0.043989379 -0.057376046 0.92552185
-0.035820417 -0.058199529 0.92565459
-0.024893714 -0.058332283 0.92433017
-0.015489182 -0.058330737 0.92164683
-0.0029940591 -0.057780307 0.92571443
0.0052667167 -0.058351483 0.92376804
0.013080928 -0.057847884 0.92461294
0.021127328 -0.058733575 0.92780036
0.021819968 -0.26029253 0.93002236
0.017431086 -0.2559256 0.93127126
0.023028934 -0.25424474 0.93551964
0.014846407 -0.24708922 0.93703318
0.020723851 -0.24950488 0.93811446
0.015143821 -0.23497456 0.93377203
0.019641012 -0.22026128 0.93494761
0.015143697 -0.21547107 0.93639863
0.016579639 -0.20410454 0.93372279
0.016376706 -0.19394691 0.9354406
0.020425767 -0.19188243 0.93313825
0.015538476 -0.18629396 0.93493766
0.016037181 -0.1757109 0.931795
0.020387724 -0.17218938 0.93633765
0.016229007 -0.16505809 0.93464267
0.015723227 -0.15499844 0.93572253
0.020440673 -0.1548216 0.93796319
0.016421301 -0.14302947 0.93408716
0.015873596 -0.13506563 0.93560249
0.025014054 -0.13318765 0.93939722
0.016068637 -0.12571791 0.93579233
0.02392669 -0.12348618 0.93609321
0.016363166 -0.11523922 0.93334287
0.022105088 -0.11254563 0.93491638
0.016006334 -0.10525379 0.93535876
0.021637049 -0.10492472 0.93460596
0.016918324 -0.096191071 0.93490458
0.021691659 -0.092695557 0.93477488
0.016882624 -0.083749384 0.93570101
0.021567976 -0.08472015 0.93518138
0.016966179 -0.075851403 0.93208468
0.022336749 -0.074226767 0.93604994
-0.13152879 -0.062707692 0.93669242
-0.1258789 -0.062651172 0.93690449
-0.11505665 -0.06335447 0.93614894
-0.10433625 -0.064636037 0.93669254
-0.090701513 -0.060125388 0.93194979
-0.08535891 -0.06054749 0.93234503
-0.074939601 -0.061091539 0.93195212
-0.064276166 -0.061805472 0.93259084
-0.053947885 -0.062071815 0.93283123
-0.044908732 -0.062881343 0.93226635
-0.035122734 -0.064066753 0.93194968
-0.02533727 -0.063518077 0.93239921
-0.010703786 -0.060005374 0.93089718
-0.0050323377 -0.060751427 0.93600327
0.0060006403 -0.06111306 0.93653196
0.015721489 -0.063959576 0.93641269
0.021385031 -0.067084156 0.9325124
-0.13022786 -0.058078457 0.93796319
-0.12601049 -0.057204738 0.93455082
-0.11523581 -0.058045629 0.93403739
-0.10304242 -0.057916243 0.93444079
-0.093447238 -0.058123004 0.93362612
-0.086490162 -0.058003895 0.936212
-0.07538271 -0.057083305 0.93325937
-0.064888291 -0.05737967 0.93635994
-0.05547186 -0.0584171 0.9350121
-0.045142241 -0.058221914 0.93552959
-0.033525415 -0.058101617 0.93260145
-0.023730941 -0.057863604 0.93563288
-0.015254198 -0.057922982 0.93421739
-0.0064137476 -0.057483424 0.93411165
0.0049695554 -0.057630546 0.93665314
0.014095243 -0.05835399 0.93354839
0.020125078 -0.26240528 0.94098008
0.016058719 -0.25562283 0.94430542
0.021743404 -0.25793225 0.94537282
0.014983058 -0.24248017 0.94074899
0.015333713 -0.23383558 0.94763935
0.015172367 -0.22442564 0.94196784
0.015726572 -0.21634828 0.94835794
0.016149515 -0.20432097 0.94525546
0.01633021 -0.19292818 0.94241899
0.015451482 -0.1839163 0.94802105
0.021299653 -0.18897623 0.94708687
0.015661655 -0.17533472 0.94291842
0.020389786 -0.17037417 0.94856369
0.01570422 -0.16653347 0.94799775
0.015776366 -0.15695289 0.9445793
0.01603584 -0.14517543 0.94263971
0.016331328 -0.13560908 0.94484001
0.025687154 -0.13350704 0.94938672
0.015795937 -0.12393275 0.94663036
0.021861579 -0.12340353 0.94670784
0.016607318 -0.11506418 0.94303119
0.021172358 -0.11554336 0.94243628
0.017187303 -0.10599653 0.94267684
0.021455824 -0.10508968 0.94544423
0.016439321 -0.093821235 0.94492328
0.022560738 -0.095256791 0.94360393
0.016489234 -0.086673357 0.94252324
0.02197485 -0.086269066 0.94549072
0.016161129 -0.075080335 0.94591808
0.022292759 -0.073703475 0.94565511
-0.13457453 -0.060602523 0.94482541
-0.12464336 -0.062138576 0.94555324
-0.11538337 -0.062409654 0.94684929
-0.10465944 -0.062738433 0.94705743
-0.095009603 -0.063388176 0.94719404
-0.084395505 -0.061813492 0.94439042
-0.074617602 -0.062506892 0.94439054
-0.064988129 -0.06297756 0.94432437
-0.05506175 -0.063893698 0.9443903
-0.045217678 -0.062650457 0.94232666
-0.035374042 -0.062507339 0.94191873
-0.025133699 -0.062614061 0.94201559
-0.015274451 -0.063469768 0.94225997
-0.004427867 -0.062490478 0.94303352
0.005147181 -0.06253387 0.94397932
0.014680532 -0.064843558 0.94393206
0.021639252 -0.067644142 0.94111276
-0.13574764 -0.058301978 0.94524014
-0.12496009 -0.05780796 0.94133121
-0.11333834 -0.058077831 0.94478685
-0.10608609 -0.058765549 0.94441116
-0.09576419 -0.057980478 0.94288385
-0.084991634 -0.057572227 0.94654506
-0.075734101 -0.057907779 0.94315052
-0.066319607 -0.058313448 0.94493407
-0.054545838 -0.057687566 0.94181937
-0.043986354 -0.057269212 0.94505262
-0.035745211 -0.057951041 0.94385761
-0.026188498 -0.057391651 0.94404149
-0.015155542 -0.05802859 0.94679296
-0.0051803417 -0.057951629 0.94305778
0.0052232333 -0.058261778 0.94479084
0.01287401 -0.058378857 0.94108361
0.024660373 -0.25111121 0.95218796
0.015605131 -0.24366347 0.95344895
0.020813348 -0.24864106 0.95218796
0.012780109 -0.23999825 0.95487785
0.015318316 -0.22321589 0.95568877
0.015655104 -0.21437979 0.95484674
0.016444646 -0.20470592 0.95728737
0.020402946 -0.20559509 0.95849508
0.016252667 -0.19284636 0.9536801
0.021317167 -0.197455 0.95270485
0.014810449 -0.18482246 0.95873642
0.020335827 -0.18686588 0.9598043
0.015607905 -0.17325552 0.95562851
0.015982131 -0.16396837 0.9510507
0.016212294 -0.15432793 0.95565194
0.020658236 -0.1524473 0.95019078
0.015470175 -0.14725469 0.9514482
0.026168041 -0.14069939 0.9552933
0.015987964 -0.13459496 0.95526123
0.022600818 -0.13416146 0.95655751
0.016404336 -0.12619105 0.95518315
0.021733901 -0.12603085 0.95525861
0.016523475 -0.1148675 0.9528054
0.022011794 -0.11396183 0.95418829
0.016160116 -0.10505751 0.95396543
0.022905571 -0.10516895 0.95085889
0.016613102 -0.095392764 0.95561439
0.021902332 -0.09576267 0.95461339
0.016635736 -0.084908672 0.95359838
0.021381948 -0.082686633 0.95790231
0.016034296 -0.07413955 0.9530561
0.022564275 -0.077561356 0.95218229
-0.13270223 -0.064038582 0.95418006
-0.12835553 -0.064768136 0.95373017
-0.11393921 -0.063544527 0.95538235
-0.1059548 -0.064110734 0.95538199
-0.095974311 -0.064818501 0.95538199
-0.085450307 -0.064555779 0.95492476
-0.073846802 -0.064369291 0.95563096
-0.06477984 -0.063773155 0.95690572
-0.054811731 -0.064480036 0.95690584
-0.045461889 -0.065001041 0.95764768
-0.03427124 -0.062949173 0.95541251
-0.025293443 -0.06398762 0.95448923
-0.014873922 -0.063638426 0.95470476
-0.0047163186 -0.064309314 0.95355302
0.0043797251 -0.064982191 0.95359528
0.015722254 -0.06389074 0.95414871
0.020521713 -0.067336828 0.95678526
-0.13278934 -0.057384945 0.95612246
-0.12483139 -0.057948112 0.95083946
-0.11615936 -0.057956804 0.95379442
-0.10552533 -0.057770092 0.95638865
-0.095346272 -0.05803505 0.9537251
-0.086339816 -0.058595289 0.9560048
-0.075456873 -0.057514492 0.9522531
-0.06375286 -0.057028666 0.95587677
-0.054246798 -0.057452098 0.95223427
-0.045407366 -0.057378054 0.95436531
-0.034847952 -0.057389103 0.95640886
-0.024640834 -0.05794891 0.95318753
-0.015125243 -0.058608118 0.95493549
-0.00487711 -0.058548376 0.95410031
0.0059435801 -0.05734105 0.95582747
0.01368811 -0.058306102 0.95297509
0.015778502 -0.23363619 0.9611811
0.015042065 -0.22820623 0.96489364
0.017556613 -0.21174724 0.96520418
0.01700912 -0.20585205 0.9648084
0.020069605 -0.20201316 0.96092522
0.016083378 -0.19474642 0.9642747
0.021239879 -0.19608951 0.96568298
0.016888792 -0.18532428 0.96530765
0.015774287 -0.17350498 0.96704537
0.021411465 -0.17711234 0.96706522
0.015390221 -0.16440666 0.96327603
0.020549892 -0.16825892 0.96127307
0.015879655 -0.15478426 0.96834308
0.020872772 -0.15001805 0.96263599
0.015999885 -0.14427647 0.96435827
0.022298735 -0.14191772 0.96500129
0.015233529 -0.13488105 0.96464986
0.016770585 -0.12403841 0.96701235
0.022821844 -0.1267124 0.96548277
0.015870202 -0.11597603 0.96175802
0.022918791 -0.11401092 0.9648695
0.016343238 -0.10406417 0.96628052
0.021785347 -0.10714506 0.96459293
0.015663968 -0.095770359 0.96439999
0.022250181 -0.094547346 0.96447778
0.016417814 -0.085786819 0.96127242
0.021348206 -0.086760841 0.96456957
0.016945206 -0.075125091 0.96372545
0.021467589 -0.076184437 0.96242368
-0.13106325 -0.064165778 0.96411175
-0.12522927 -0.065563105 0.96284229
-0.11614199 -0.06237153 0.9647879
-0.1056523 -0.062021904 0.96641326
-0.095531747 -0.062739626 0.96641326
-0.085411139 -0.063457325 0.96641332
-0.07611987 -0.063575365 0.96680188
-0.065080926 -0.0636371 0.96731991
-0.054960351 -0.064354777 0.96731991
-0.044839755 -0.065072492 0.96731991
-0.034651101 -0.064061381 0.96665382
-0.02412089 -0.060851164 0.96169358
-0.015484201 -0.061368134 0.96199471
-0.0055037099 -0.062075909 0.96199471
0.0042629121 -0.062768504 0.96199477
0.01607109 -0.064921588 0.96365863
0.021176266 -0.066713788 0.96476972
-0.13323066 -0.057918765 0.96750188
-0.12437303 -0.057222348 0.96391749
-0.11600017 -0.058540106 0.96532345
-0.10480764 -0.057084087 0.96412551
-0.097298928 -0.057528708 0.96288621
-0.085063331 -0.057720304 0.96694863
-0.074552871 -0.057441961 0.96201032
-0.064874068 -0.05711573 0.96542263
-0.055949103 -0.057897352 0.96663797
-0.045708619 -0.058031403 0.96328443
-0.035076439 -0.058596641 0.96364361
-0.024462979 -0.057000123 0.96343797
-0.014160261 -0.057329919 0.96593708
-0.004676077 -0.057805039 0.96266407
0.0052914382 -0.056875914 0.96525055
0.014287054 -0.057698127 0.96630746
0.021020364 -0.058416352 0.96273965
0.015877282 -0.22097141 0.97062498
0.020411279 -0.22388263 0.97062492
0.016922913 -0.21496762 0.97545195
0.021210244 -0.21417679 0.9779982
0.016609712 -0.20202877 0.9717446
0.020838773 -0.20351188 0.97261566
0.015926776 -0.19693176 0.97502136
0.021321513 -0.19443023 0.97919041
0.0149172 -0.18334717 0.97453988
0.021367177 -0.18563858 0.97303486
0.015456154 -0.17844015 0.97537035
0.015624901 -0.16265878 0.97433919
0.020704808 -0.16609542 0.97422272
0.015294434 -0.15534335 0.97616023
0.023132619 -0.15593761 0.9776873
0.016143432 -0.14395204 0.97556543
0.022598188 -0.14745018 0.97235882
0.015571334 -0.13428742 0.97370964
0.023168037 -0.1355301 0.9732691
0.016089035 -0.12498181 0.97681397
0.022437505 -0.12389224 0.97940493
0.016036499 -0.11304116 0.9738121
0.023321819 -0.11594319 0.9743256
0.015849501 -0.10468156 0.97521055
0.022647474 -0.1026537 0.97357374
0.016635584 -0.094622292 0.9756071
0.02114268 -0.094677664 0.97470129
0.015694272 -0.084896445 0.97358286
0.021523016 -0.082853638 0.97770655
0.017033951 -0.072970882 0.97678971
