# .PCD v0.7 - Point Cloud Data file format
VERSION 0.7
FIELDS x y z
SIZE 4 4 4
TYPE F F F
COUNT 1 1 1
WIDTH 269
HEIGHT 1
VIEWPOINT 0 0 0 1 0 0 0
POINTS 269
DATA ascii
-0.053202204 -0.12298131 0.68967175
-0.060019441 -0.11881584 0.68813246
-0.055221569 -0.1166967 0.68688756
-0.042707633 -0.14329538 0.6978538
-0.037101597 -0.14577456 0.69872391
-0.051694751 -0.12524754 0.69189334
-0.044695504 -0.12380742 0.69371569
-0.038988568 -0.12543495 0.69704068
-0.052928586 -0.11458071 0.69185722
-0.046085391 -0.11608292 0.6942544
-0.037222594 -0.11544946 0.69782209
-0.052663211 -0.10734248 0.69139802
-0.044239264 -0.10545592 0.69435215
-0.038391706 -0.10445424 0.69829488
-0.045245394 -0.095553271 0.69625723
-0.03925097 -0.09472312 0.69895744
-0.043621767 -0.086319551 0.69858259
-0.032688737 -0.15141581 0.70271879
-0.026499346 -0.15187481 0.70704597
-0.04277632 -0.14540286 0.70341623
-0.034293707 -0.14566934 0.70491809
-0.026670227 -0.14452046 0.70835853
-0.035290718 -0.13510397 0.7026664
-0.027645694 -0.13565843 0.70647013
-0.041701481 -0.12184513 0.70086765
-0.033371616 -0.12397187 0.70214987
-0.027819918 -0.12480454 0.70751756
-0.03202197 -0.11383232 0.70527005
-0.02787827 -0.11388208 0.70771921
-0.041916691 -0.10501121 0.70125729
-0.033979371 -0.10559634 0.70363021
-0.028250115 -0.10397623 0.70771766
-0.041624609 -0.094455324 0.70167565
-0.034637757 -0.095111482 0.70390844
-0.027582128 -0.096837796 0.70882374
-0.041667849 -0.08486861 0.70127779
-0.034454841 -0.084684908 0.70491534
-0.028239399 -0.086279251 0.70886397
-0.04127061 -0.077023454 0.70209515
-0.035510626 -0.074618496 0.70510566
-0.029248245 -0.073830187 0.70825773
-0.034758478 -0.066991955 0.70639277
-0.033160966 -0.057969343 0.70948815
-0.021922836 -0.15130094 0.7131303
-0.017803358 -0.15505756 0.71464473
-0.031040512 -0.14539477 0.71083128
-0.023487762 -0.14426252 0.71376407
-0.01912762 -0.14443688 0.71825951
-0.022955028 -0.13371043 0.71489936
-0.018662188 -0.1359079 0.71853507
-0.023138575 -0.1243206 0.71405518
-0.018474957 -0.12647004 0.71835852
-0.023143064 -0.11424512 0.71373832
-0.017929273 -0.11441869 0.71841574
-0.023644963 -0.10466235 0.71347511
-0.01843036 -0.10482224 0.71794468
-0.023673657 -0.094193064 0.71413904
-0.018776394 -0.095431678 0.71773672
-0.030931089 -0.083829828 0.71059
-0.024681747 -0.085538335 0.71334195
-0.019774858 -0.088956863 0.7166003
-0.031259254 -0.074995525 0.7101801
-0.024657942 -0.074723504 0.71450609
-0.019107858 -0.074310444 0.71941727
-0.03237823 -0.062089957 0.71152693
-0.024967777 -0.064766988 0.71574426
-0.0318195 -0.054035708 0.71296042
-0.027230013 -0.055765044 0.71636367
-0.031175774 -0.045134474 0.71731514
-0.028370952 -0.047866769 0.71844518
-0.020626817 -0.1500755 0.72084302
-0.014013537 -0.15108484 0.72345531
-0.0067379815 -0.15111239 0.72766209
-0.014631833 -0.14473152 0.72461289
-0.0093919346 -0.14843653 0.72394907
-0.01425484 -0.13395722 0.72451127
-0.0095138429 -0.13548853 0.72862816
-0.020933099 -0.12182863 0.72032046
-0.01380852 -0.12468165 0.72442108
-0.0092259087 -0.12176722 0.72812837
-0.013504338 -0.1157492 0.7245056
-0.0092580002 -0.11411151 0.72851986
-0.01497034 -0.10648982 0.72284412
-0.021170063 -0.095820956 0.72000057
-0.01464266 -0.096407905 0.7242946
-0.0084722051 -0.099068403 0.72922039
-0.021984737 -0.082867481 0.72157663
-0.014307054 -0.084911726 0.72490948
-0.0092205554 -0.085612841 0.72903669
-0.020662623 -0.074961387 0.72153926
-0.014920771 -0.075261414 0.72531688
-0.0099384263 -0.07410045 0.7286545
-0.021300076 -0.063360117 0.72211725
-0.01625319 -0.065449558 0.7255159
-0.0228207 -0.054673795 0.72325504
-0.017497394 -0.055747006 0.72797447
-0.030904032 -0.042982541 0.72124153
-0.025028624 -0.04492899 0.72505355
-0.018991932 -0.044939812 0.72919774
-0.030028049 -0.038148195 0.72191447
-0.028295605 -0.036078345 0.72614437
-0.0035446477 -0.15148123 0.73615342
0.0027233069 -0.15087892 0.73745376
-0.01115019 -0.14359725 0.73062629
-0.005515324 -0.14525956 0.73420835
0.00087202818 -0.14599873 0.73553485
-0.011351157 -0.13655114 0.73111719
-0.0049566384 -0.13495535 0.73477525
0.00096462818 -0.13678469 0.73923814
-0.010952359 -0.12778538 0.73108709
-0.0063396292 -0.12597211 0.73274893
-0.010566702 -0.11921662 0.7310583
-0.0041446472 -0.11549874 0.73549825
0.0013358548 -0.11447357 0.73957264
-0.011596707 -0.10445439 0.73203242
-0.0042525809 -0.10410935 0.73518175
0.00029690153 -0.10216679 0.73872441
-0.011503706 -0.093931101 0.73084921
-0.0051791384 -0.0940817 0.7346316
0.0009947113 -0.09591186 0.73962653
-0.011192713 -0.084731996 0.73151845
-0.0048856218 -0.08458624 0.73519015
-0.011103233 -0.074817643 0.73094624
-0.0053836699 -0.074901544 0.73537493
-0.011916923 -0.06281057 0.73233569
-0.0063634128 -0.065087616 0.73645109
-0.013508829 -0.054223891 0.73306578
-0.0081561888 -0.057831816 0.73585135
-0.020960085 -0.047747903 0.73081547
-0.015896801 -0.044858318 0.73598301
-0.0092435498 -0.049659438 0.73927677
-0.024019856 -0.034380112 0.73439598
-0.018643364 -0.036728848 0.73755825
-0.027210478 -0.026522625 0.73633206
0.005597047 -0.15184167 0.7444337
-0.00099606626 -0.14672178 0.74093646
0.0050173094 -0.14499509 0.74315912
0.013942017 -0.14153166 0.74971753
-0.0010486438 -0.13157707 0.74525857
0.0058137276 -0.13479261 0.74662697
-0.0030971386 -0.1246053 0.7418353
0.0050918786 -0.12506302 0.74545604
0.010040022 -0.12292764 0.74905694
-0.0015046909 -0.11635975 0.74188662
0.0051630302 -0.11462023 0.74572921
0.010665002 -0.11619579 0.7498486
-0.00043930658 -0.1061141 0.74125004
0.0049330578 -0.10491537 0.74523193
-0.0013882334 -0.096358068 0.74200857
0.0046556867 -0.095642038 0.74540627
-0.0010040192 -0.086053677 0.74123961
0.0043757306 -0.085416965 0.74442941
0.01093895 -0.082753867 0.74878573
-0.0015429638 -0.073882952 0.740704
0.0043028253 -0.075510375 0.74405587
-0.0011606425 -0.06772121 0.74150908
0.0030941668 -0.064360179 0.7474038
-0.010446696 -0.052671608 0.74101919
-0.0039064949 -0.054341648 0.74471074
0.0013607866 -0.055807333 0.74792933
-0.012007706 -0.043048706 0.74234289
-0.0065260869 -0.0455206 0.74611831
-0.021332419 -0.032311872 0.74174774
-0.014912285 -0.034897469 0.74494791
-0.0077723833 -0.038944893 0.74909759
-0.030631978 -0.020938499 0.74333566
-0.023986645 -0.024947589 0.74397439
-0.018356359 -0.027421316 0.74669093
-0.030452672 -0.018410031 0.74575055
-0.027296146 -0.01862615 0.74558842
0.0078017889 -0.14569312 0.75202262
0.0084818332 -0.134221 0.75099498
0.014480203 -0.13605198 0.75468129
0.020150948 -0.13412821 0.75885099
0.0088630253 -0.12563372 0.75167066
0.013603886 -0.12480856 0.75554776
0.0085274242 -0.11346173 0.75275558
0.013361243 -0.11460982 0.75569946
0.0084313527 -0.10555844 0.75135344
0.013440526 -0.10468322 0.75522256
0.0089370813 -0.096113712 0.75236344
0.014003304 -0.094744481 0.75438827
0.0084192529 -0.087454826 0.75146377
0.012943668 -0.084455691 0.7547673
0.0083916513 -0.072369508 0.75194496
0.0073187812 -0.064471811 0.75459695
-3.5182184e-05 -0.052081101 0.75240344
0.004241392 -0.055132538 0.75577658
-0.0024765483 -0.043316513 0.75340194
0.0012709053 -0.046973299 0.7555272
-0.011786453 -0.033274572 0.75176775
-0.006294562 -0.035913732 0.75371075
-0.015017911 -0.024704548 0.75513101
-0.0079262983 -0.028601216 0.75904614
-0.030934343 -0.012303599 0.75463378
-0.025164809 -0.015276616 0.75520325
-0.018889498 -0.019081926 0.75604862
-0.030934008 -0.0081947362 0.75938696
-0.02821181 -0.0083877807 0.75938702
0.017726332 -0.13132581 0.76184887
0.021071032 -0.13156302 0.76184893
0.018583708 -0.12471826 0.76456064
0.022573767 -0.12765652 0.7663582
0.017664956 -0.11594636 0.76323736
0.021244153 -0.11915883 0.76836419
0.018491803 -0.10396587 0.7652725
0.020717153 -0.10529839 0.76938123
0.018245483 -0.094001897 0.7654258
0.020641802 -0.096494682 0.76877689
0.016565176 -0.084700719 0.76445591
0.014064153 -0.075260073 0.76542604
0.0096673435 -0.062713698 0.76239634
0.011686811 -0.066698715 0.76507306
0.0074311648 -0.055181973 0.76339817
0.010618084 -0.056910083 0.76573747
0.0045044865 -0.045075312 0.76485813
-0.00279058 -0.03284815 0.76373124
0.0022218253 -0.036470555 0.76661348
-0.012571537 -0.022067463 0.7623502
-0.0057787658 -0.02564387 0.76547968
-0.023285754 -0.012585048 0.76290524
-0.015802933 -0.015529959 0.76600194
-0.0083130375 -0.018552683 0.76884872
-0.031983972 -0.0065339264 0.76485652
-0.026091341 -0.0081108529 0.76574641
-0.01936681 -0.0092452606 0.76779246
0.019285781 -0.12342792 0.77078331
0.024307726 -0.12365085 0.77203619
0.024125069 -0.11571868 0.77678883
0.019069161 -0.10592544 0.77199376
0.022032449 -0.10590277 0.77521241
0.019143825 -0.092786998 0.77336437
0.021136714 -0.094842531 0.77541977
0.017980292 -0.08482185 0.7745865
0.020441938 -0.088791139 0.7735256
0.015080209 -0.076059759 0.77470607
0.012782885 -0.064458415 0.77361339
0.009074742 -0.050089907 0.77586091
0.01150241 -0.053417839 0.775289
0.0080647869 -0.044402711 0.77347547
0.011426481 -0.046082184 0.77495778
0.0052145314 -0.03446687 0.77477062
0.011556034 -0.036941681 0.77781636
-0.0031887263 -0.023583639 0.77235621
0.0026443799 -0.027153319 0.77573067
-0.012522231 -0.013807083 0.77418047
-0.0057035419 -0.016340274 0.77597266
0.0011641616 -0.019616984 0.77806586
-0.025056737 -0.0056487587 0.77470237
-0.0162251 -0.0080526322 0.77643156
-0.0097266864 -0.0095637292 0.77698159
0.026979005 -0.12072277 0.78333503
0.03088568 -0.12238201 0.78767294
0.025587684 -0.11422711 0.78459924
0.031155178 -0.11745584 0.78545374
0.014545924 -0.067453571 0.78213
0.012156403 -0.054162011 0.78040314
0.0078843962 -0.032385532 0.78172332
0.010906668 -0.032599863 0.78172344
0.0059870095 -0.023734091 0.78321791
0.010645226 -0.023452658 0.78512889
-0.0027700313 -0.013128535 0.78398752
0.0026572477 -0.016745556 0.78532004
-0.014116552 -0.0070432522 0.78346056
-0.0080343764 -0.0088983011 0.78336751
0.025844367 -0.12353274 0.79369003
0.027753707 -0.11632457 0.79230154
0.026918676 -0.10451828 0.79253453
0.031188646 -0.10653481 0.79541242
