# .PCD v0.7 - Point Cloud Data file format
VERSION 0.7
FIELDS x y z
SIZE 4 4 4
TYPE F F F
COUNT 1 1 1
WIDTH 277
HEIGHT 1
VIEWPOINT 0 0 0 1 0 0 0
POINTS 277
DATA ascii
-0.04447484 -0.19667052 0.74948531
-0.037477572 -0.19267678 0.74793589
-0.091771141 -0.22099385 0.75797212
-0.088217258 -0.2201308 0.75862414
-0.093034334 -0.21910974 0.75876904
-0.084648304 -0.21684968 0.75807101
-0.075089574 -0.21385412 0.75737143
-0.066842496 -0.21126376 0.75716811
-0.059253082 -0.2106739 0.75808078
-0.06301938 -0.20738606 0.75499308
-0.054514952 -0.20400783 0.75528485
-0.047616623 -0.20249954 0.75570381
-0.039820503 -0.20004547 0.75514072
-0.043782365 -0.1982369 0.75438291
-0.03487679 -0.1942623 0.75409257
-0.027000444 -0.19122709 0.75769025
-0.10083616 -0.22489972 0.76899666
-0.095047757 -0.22256021 0.76562738
-0.085824557 -0.22154249 0.76670176
-0.077552222 -0.22067797 0.76713461
-0.08445847 -0.21836521 0.76316565
-0.074913271 -0.21657006 0.76494879
-0.065263286 -0.2129885 0.76462841
-0.056958295 -0.21103369 0.76607567
-0.060731459 -0.20884679 0.76009697
-0.054449543 -0.20810448 0.76376551
-0.045010664 -0.20433432 0.76472414
-0.037311938 -0.20164192 0.76653373
-0.03347877 -0.19726069 0.76439768
-0.026192257 -0.19395824 0.76622409
-0.019446101 -0.19379911 0.76843733
-0.022033667 -0.18890634 0.76440537
-0.019394068 -0.18815605 0.76567739
-0.10226484 -0.23115849 0.77784729
-0.099082619 -0.2310434 0.7782706
-0.10208887 -0.22776726 0.77559739
-0.094598219 -0.22622192 0.77517658
-0.0849135 -0.2235762 0.7742036
-0.077182367 -0.22153734 0.77536619
-0.069404982 -0.22073567 0.7769295
-0.072629631 -0.21859327 0.77450216
-0.065184072 -0.21580419 0.77498001
-0.056582227 -0.21233027 0.77572858
-0.048389178 -0.2113599 0.77632248
-0.053868368 -0.2092815 0.77259862
-0.045303468 -0.20663512 0.77417231
-0.035043303 -0.20204699 0.77603728
-0.028057549 -0.20102133 0.77735025
-0.031155577 -0.19932525 0.77318692
-0.024564082 -0.1972169 0.77479798
-0.017581733 -0.19372511 0.77518541
-0.10423027 -0.23184277 0.78654641
-0.096759222 -0.23080593 0.78662187
-0.088279516 -0.23051134 0.78755105
-0.10282861 -0.22958127 0.78179234
-0.093812369 -0.22875713 0.78401625
-0.085039876 -0.22631389 0.7846933
-0.075120285 -0.22208032 0.78491914
-0.067167841 -0.22108898 0.78528154
-0.071209297 -0.21950059 0.78178567
-0.064180069 -0.21692185 0.78479749
-0.054888342 -0.21315654 0.78471112
-0.047822684 -0.21245521 0.78284383
-0.050322104 -0.2099102 0.78164524
-0.048014767 -0.20974658 0.78164506
-0.034334186 -0.20331576 0.78579926
-0.027074657 -0.20160601 0.7859152
-0.016117522 -0.20055838 0.78932518
-0.024057778 -0.19844013 0.78368342
-0.014650411 -0.19597752 0.78519762
-0.0086833034 -0.19563639 0.78921598
-0.11160491 -0.2352881 0.79792023
-0.10548752 -0.23404202 0.79468507
-0.095254362 -0.23185408 0.79499227
-0.086623855 -0.23129334 0.79462886
-0.091249883 -0.22943541 0.7924757
-0.084900051 -0.22799715 0.79437113
-0.076872155 -0.22457865 0.79240453
-0.068308234 -0.22107586 0.79419577
-0.070724361 -0.21982497 0.79408097
-0.067246497 -0.21960787 0.79618335
-0.05746796 -0.21522133 0.79078925
-0.030799368 -0.20436224 0.79055983
-0.025259076 -0.20122357 0.79228121
-0.013722288 -0.20085883 0.79658335
-0.0075738742 -0.20078798 0.79582345
-0.022480497 -0.19887435 0.79411227
-0.015211882 -0.19821729 0.79400593
-0.0073642535 -0.19857514 0.79610825
-0.11414848 -0.24022058 0.80844247
-0.11303806 -0.23728862 0.80553269
-0.10487986 -0.23547621 0.80459976
-0.095084541 -0.23268785 0.8049835
-0.087259956 -0.23072863 0.80723965
-0.085440166 -0.22816987 0.80306745
-0.075358897 -0.22638234 0.80224943
-0.067315623 -0.22262286 0.80097622
-0.020828743 -0.20187548 0.80557632
-0.012867862 -0.20162307 0.80469275
-0.0056725373 -0.20113677 0.80557603
0.00081961253 -0.20110679 0.8079716
-0.021041695 -0.19887258 0.80425441
-0.015226797 -0.19907962 0.80391198
-0.0029060233 -0.19988362 0.80316526
-0.11595599 -0.2409261 0.81250596
-0.12219307 -0.23652653 0.81873316
-0.11577655 -0.23743483 0.81356156
-0.10433669 -0.23586188 0.8134079
-0.095893502 -0.23350964 0.8135376
-0.087578259 -0.23303992 0.81029326
-0.012512769 -0.20112461 0.81299132
-0.0052684825 -0.2029025 0.81454623
0.0014939985 -0.20187725 0.81472099
-0.014615917 -0.19866212 0.81335872
-0.0090474263 -0.19862597 0.81982517
-0.12436329 -0.24095722 0.82719612
-0.11513142 -0.24120426 0.82437897
-0.10976628 -0.24030964 0.82253665
-0.12185786 -0.2394888 0.82474297
-0.11443671 -0.23657505 0.823138
-0.10491513 -0.23424676 0.82552826
-0.097360216 -0.23282906 0.82510012
-0.089597262 -0.23375212 0.82927686
-0.093417004 -0.22879265 0.82605451
-0.086391866 -0.22618786 0.82876402
-0.0044161174 -0.20343766 0.82519197
0.0019251006 -0.20392863 0.82536656
-0.011795112 -0.19572242 0.82545429
-0.0084183021 -0.19738132 0.82714939
-0.13090879 -0.24209316 0.83803254
-0.12595624 -0.24158327 0.83554512
-0.1152293 -0.24147736 0.83417374
-0.10820839 -0.24010263 0.83789861
-0.12092229 -0.23941259 0.83622366
-0.11547775 -0.23861565 0.83461171
-0.10523045 -0.23624212 0.83549553
-0.095138013 -0.23247401 0.83500803
-0.086142421 -0.2321074 0.83392155
-0.086003959 -0.22890797 0.83730084
-0.079107322 -0.22659805 0.83844292
-0.0026101202 -0.20459832 0.83470482
0.0021911277 -0.20696208 0.8341772
-0.012303717 -0.19410101 0.83189356
-0.0066797324 -0.19774769 0.83546746
-0.13258407 -0.24277437 0.84579676
-0.12565099 -0.24180079 0.84581983
-0.116812 -0.24111973 0.84627563
-0.10889041 -0.24064405 0.84567434
-0.120927 -0.23993525 0.84462368
-0.11426352 -0.23858695 0.84462875
-0.10501198 -0.23613788 0.84514195
-0.094948426 -0.23279674 0.84443241
-0.087912589 -0.23066954 0.84672707
-0.084403232 -0.22836384 0.8463273
0.00018406162 -0.21002609 0.84165347
-0.0013979246 -0.20511505 0.84236717
0.0033835371 -0.20577309 0.84485537
-0.0049791336 -0.19799307 0.84183943
-0.14080316 -0.24578233 0.85107446
-0.13510989 -0.24442282 0.85242248
-0.12479584 -0.24259485 0.85380936
-0.11633225 -0.24168694 0.8552376
-0.10907056 -0.24141221 0.85286272
-0.11317872 -0.23847096 0.85428387
-0.10491066 -0.23594135 0.85568058
-0.095470496 -0.23252775 0.8543424
-0.088657558 -0.23152889 0.85428321
-0.083879508 -0.22737111 0.85827625
-0.075185433 -0.22156754 0.85990107
-0.06810759 -0.22106564 0.85990077
-0.063979305 -0.215927 0.85808963
0.0059597776 -0.20488176 0.85528171
0.012397825 -0.20593636 0.85785627
0.015900802 -0.19772083 0.85604531
0.02410409 -0.19305082 0.85752225
0.030499544 -0.19009128 0.85916156
0.026988417 -0.18887991 0.85562694
-0.1433598 -0.24391828 0.86066496
-0.13438097 -0.24279509 0.86461347
-0.12692031 -0.24365991 0.86686718
-0.11551449 -0.24300657 0.86815375
-0.10851309 -0.24004585 0.86019421
-0.12448107 -0.23888712 0.86345351
-0.1153599 -0.23634718 0.86614662
-0.10561147 -0.23984009 0.86019421
-0.093875147 -0.23136862 0.86034501
-0.086502321 -0.23170437 0.86247706
-0.09066394 -0.22899467 0.86219633
-0.086464152 -0.22887108 0.86195403
-0.073998131 -0.22244108 0.86463106
-0.068467118 -0.22222066 0.86523545
-0.071021207 -0.21965446 0.86209887
0.007569252 -0.21080545 0.86547244
0.012216291 -0.21046904 0.86566138
0.0072831837 -0.20706271 0.86365622
0.015267665 -0.20614578 0.86536539
0.02320181 -0.20134997 0.86489582
0.026980858 -0.19593602 0.8636052
0.032304212 -0.19459654 0.86543667
-0.13226369 -0.24501804 0.8732996
-0.12451263 -0.24280594 0.87421274
-0.1173915 -0.2420907 0.87441564
-0.11557779 -0.23926133 0.87595654
-4.7946614e-06 -0.21450064 0.87984377
0.0058120736 -0.21303439 0.87813842
0.012030241 -0.21169388 0.87474346
0.007673963 -0.20817022 0.87332368
0.015598156 -0.20823289 0.87461895
0.025583714 -0.20364946 0.87545699
0.032599296 -0.20145737 0.87463456
0.034007471 -0.19723153 0.87355703
-0.15129338 -0.24551859 0.88676566
-0.14506084 -0.24526951 0.88682759
-0.13464287 -0.24438877 0.88398468
-0.1258869 -0.24189001 0.88552815
-0.11636093 -0.24255706 0.88054818
-0.012929734 -0.22436529 0.88929641
-0.005158918 -0.22283858 0.88879788
0.0034986946 -0.22145179 0.88828492
-0.0046478547 -0.2151683 0.88510722
0.0047507985 -0.21536893 0.88387346
0.014156012 -0.21226639 0.88455141
0.022409387 -0.2112992 0.88643861
0.019520121 -0.20865668 0.8830995
0.024733551 -0.20645009 0.88491374
0.03060207 -0.20409849 0.88565439
-0.12645516 -0.2449649 0.89026254
-0.11243703 -0.23556603 0.89224976
-0.10828394 -0.23465313 0.89471763
-0.0066642701 -0.231233 0.89824593
-0.0051188073 -0.22663198 0.89452499
0.0043962365 -0.22284418 0.89509356
0.013139608 -0.22125734 0.89686471
0.008571404 -0.21886075 0.89200258
0.015106696 -0.21692987 0.89566052
0.020960348 -0.21518219 0.89543641
0.018478001 -0.20916104 0.89132035
0.026334461 -0.20674065 0.89064533
0.03105776 -0.2061798 0.89056349
-0.14425163 -0.24267982 0.90899271
-0.13560832 -0.24219581 0.90903306
-0.12057023 -0.2407285 0.90547574
-0.11811643 -0.24052362 0.90615243
-0.12078171 -0.23735128 0.90465271
-0.11562463 -0.2363162 0.90451485
-0.10398455 -0.23188044 0.90577435
-0.097372696 -0.2321296 0.90668517
0.00075010461 -0.23045211 0.90491039
-0.095176153 -0.22767471 0.90746021
0.012158002 -0.22294995 0.90272605
0.011904635 -0.21937712 0.90152234
-0.13049397 -0.24282326 0.91287082
-0.12505066 -0.24189442 0.91372758
-0.11881258 -0.24009502 0.91586941
-0.13073567 -0.2394149 0.9117924
-0.1252927 -0.23848157 0.91264647
-0.11428963 -0.23543233 0.9143334
-0.10579193 -0.23277938 0.91456914
-0.096796267 -0.23230681 0.91545832
-0.10054402 -0.22997943 0.91671741
-0.094455078 -0.22780907 0.91604853
-0.085129954 -0.22396493 0.91594416
-0.12586263 -0.24240077 0.92762053
-0.12567545 -0.23436829 0.92567569
-0.11563985 -0.23189896 0.92844999
-0.10467093 -0.23220544 0.92108792
-0.094666161 -0.231731 0.92307174
-0.08810591 -0.23053449 0.92092991
-0.097322695 -0.22916004 0.92409384
-0.082947686 -0.22503597 0.92307967
-0.1226837 -0.24156132 0.93460006
-0.11880074 -0.24156572 0.93534392
-0.123337 -0.23815632 0.93420553
-0.11705352 -0.23859039 0.93278039
-0.10553291 -0.23689376 0.93420523
-0.11106861 -0.2294836 0.93175083
-0.10608346 -0.22913003 0.93175119
