# .PCD v0.7 - Point Cloud Data file format
VERSION 0.7
FIELDS x y z
SIZE 4 4 4
TYPE F F F
COUNT 1 1 1
WIDTH 406
HEIGHT 1
VIEWPOINT 0 0 0 1 0 0 0
POINTS 406
DATA ascii
-0.11525904 -0.13473985 0.9286679
-0.11623693 -0.12343496 0.92828989
-0.10893556 -0.12510675 0.92681181
-0.11636911 -0.11404283 0.92732739
-0.1076435 -0.11038523 0.92908639
-0.11548113 -0.10510346 0.92695034
-0.10786662 -0.10273151 0.92882615
-0.11550825 -0.095407374 0.92646503
-0.10896695 -0.093755662 0.92744184
-0.11605914 -0.085458681 0.92746764
-0.10708263 -0.088038094 0.92855859
-0.11676782 -0.07585986 0.92746478
-0.10846324 -0.076114908 0.92749667
-0.11573497 -0.067312501 0.92822021
-0.10973488 -0.064637884 0.92686385
-0.11613045 -0.058152515 0.92886925
-0.11610128 -0.14393985 0.93732572
-0.11486399 -0.13447855 0.93529898
-0.11459596 -0.1253742 0.93307531
-0.10678509 -0.1240185 0.93734533
-0.096994333 -0.12486283 0.93884385
-0.11331424 -0.11478631 0.93221265
-0.10543093 -0.11554703 0.93606615
-0.097974263 -0.11551695 0.93734348
-0.11333639 -0.10550226 0.93241674
-0.10556812 -0.10471216 0.93613958
-0.097496547 -0.10613282 0.9383983
-0.11340889 -0.095202558 0.93304718
-0.10565519 -0.094675697 0.93553162
-0.097037986 -0.094756797 0.93846273
-0.11255748 -0.085555904 0.93246096
-0.10623858 -0.085505769 0.93576139
-0.097007811 -0.08526212 0.93710762
-0.11449074 -0.074699059 0.93324888
-0.10659892 -0.075793885 0.93669498
-0.098578796 -0.07539209 0.93828905
-0.11539371 -0.064911425 0.93421042
-0.10654833 -0.066433057 0.93616223
-0.098451614 -0.06504669 0.93868184
-0.10657708 -0.054870464 0.93694335
-0.10906903 -0.043527469 0.93972254
-0.10595872 -0.17394736 0.94220477
-0.11441671 -0.14519827 0.94356966
-0.10551853 -0.1441161 0.94588488
-0.096660569 -0.14250046 0.9467966
-0.084747918 -0.14131063 0.94756329
-0.078314327 -0.14176688 0.94756335
-0.11366053 -0.13625666 0.9433338
-0.10525929 -0.13455795 0.94578588
-0.096488453 -0.1331958 0.94501764
-0.087501056 -0.13323507 0.94859201
-0.11213123 -0.12805709 0.94303566
-0.10388548 -0.12525274 0.94482267
-0.095377259 -0.12403475 0.9462918
-0.11123823 -0.1182342 0.94195193
-0.10356583 -0.11456099 0.94379181
-0.09569037 -0.11458982 0.94552457
-0.10233519 -0.10484663 0.94235688
-0.095143445 -0.104724 0.94501197
-0.10246295 -0.095795527 0.94366467
-0.10253815 -0.084134892 0.94298643
-0.12221773 -0.07355924 0.94133133
-0.10253993 -0.074418657 0.94407344
-0.11315078 -0.063578181 0.94213682
-0.10512519 -0.065022744 0.94444346
-0.096763261 -0.064638056 0.94720066
-0.086019516 -0.066984609 0.94846135
-0.1146196 -0.055084422 0.94355011
-0.10639245 -0.055654962 0.9461211
-0.096381418 -0.055203728 0.94770527
-0.11518932 -0.046516497 0.94540489
-0.10579906 -0.046141885 0.94540632
-0.097678125 -0.044717137 0.94631785
-0.10509345 -0.036569539 0.94446135
-0.098289721 -0.034511264 0.94838923
-0.11922928 -0.17135091 0.95924652
-0.10659236 -0.16329026 0.95599425
-0.1147143 -0.15586154 0.95300865
-0.10545547 -0.1538628 0.95586795
-0.09670113 -0.15389495 0.95823497
-0.086831689 -0.15565863 0.95898342
-0.11216138 -0.14648107 0.95088243
-0.1048601 -0.14639622 0.95397013
-0.09681125 -0.1444125 0.95587593
-0.087417878 -0.14380133 0.95769072
-0.11230877 -0.1367994 0.95662349
-0.10407656 -0.13576247 0.95180839
-0.09492223 -0.13588394 0.95516074
-0.077294625 -0.13299176 0.957057
-0.0687204 -0.13199054 0.95671695
-0.10282528 -0.12740625 0.9508599
-0.095487282 -0.12577997 0.95293397
-0.084836245 -0.12519076 0.95385623
-0.075545728 -0.12456171 0.95499307
-0.0944831 -0.11613517 0.95135844
-0.092326507 -0.10912015 0.95039052
-0.084459484 -0.10790882 0.95085984
-0.10189612 -0.071549162 0.95080584
-0.074610151 -0.076077372 0.95564789
-0.10327649 -0.064797588 0.95418239
-0.094808832 -0.065315239 0.9549877
-0.086112119 -0.064650208 0.95616347
-0.075986572 -0.065971501 0.95499617
-0.11128277 -0.051872712 0.95537549
-0.10503915 -0.054547384 0.95447421
-0.09633451 -0.055943657 0.95503736
-0.08517725 -0.056193486 0.95564127
-0.078525722 -0.057479482 0.95695144
-0.065946326 -0.054714985 0.95568341
-0.1069238 -0.045433231 0.95579511
-0.095455617 -0.044912044 0.95460141
-0.084700175 -0.046843886 0.95620346
-0.075342469 -0.046269692 0.95662749
-0.11518301 -0.17312528 0.96575993
-0.10785618 -0.17289273 0.96757662
-0.11420542 -0.16561191 0.96385533
-0.10581415 -0.16320679 0.9655562
-0.086784326 -0.16193223 0.96615684
-0.11087861 -0.15876967 0.96260738
-0.10433854 -0.155917 0.96448207
-0.096902929 -0.15445359 0.96570694
-0.085441455 -0.15274416 0.96678227
-0.077612191 -0.15164824 0.96940148
-0.10212106 -0.14699614 0.96499193
-0.094004139 -0.14634834 0.96396661
-0.085087098 -0.14408259 0.96519291
-0.076050781 -0.14350164 0.96669698
-0.068227619 -0.14221552 0.96681494
-0.091436096 -0.13613825 0.96105033
-0.074415728 -0.13545458 0.96398669
-0.06722749 -0.13384525 0.96525013
-0.080760337 -0.12964793 0.96088779
-0.073807232 -0.1263753 0.96305013
-0.065261632 -0.1261211 0.96581721
-0.057986703 -0.12279801 0.96615988
-0.063446328 -0.11551075 0.96574473
-0.056019697 -0.11432682 0.96715951
-0.093282714 -0.062442597 0.96103024
-0.084603965 -0.06520462 0.96358907
-0.10237939 -0.054253805 0.96262455
-0.085786559 -0.055662695 0.96452844
-0.0845856 -0.046095856 0.96547222
-0.086068615 -0.038814969 0.96212357
-0.072896481 -0.038596224 0.96465504
-0.069034301 -0.035798036 0.96692604
-0.11443179 -0.18155897 0.97567654
-0.11536642 -0.1746619 0.97355598
-0.10678276 -0.17317429 0.97657228
-0.084578156 -0.17096922 0.97578382
-0.079085484 -0.1743791 0.97843415
-0.11335608 -0.16684164 0.97319657
-0.1038086 -0.16583431 0.97449487
-0.095779784 -0.16394129 0.97517622
-0.10335285 -0.15783174 0.9741292
-0.093401834 -0.15596011 0.97445858
-0.075288922 -0.15327662 0.97483623
-0.067636415 -0.15134528 0.97564644
-0.094597161 -0.14568746 0.97280586
-0.074735664 -0.14607783 0.97315276
-0.066237181 -0.14386486 0.97504669
-0.058448393 -0.1436145 0.97910643
-0.072236463 -0.13788293 0.97466719
-0.064876623 -0.13559206 0.97459894
-0.056102045 -0.13231756 0.97654724
-0.064151965 -0.12560645 0.97448903
-0.055349898 -0.12398067 0.97416264
-0.045542058 -0.12530994 0.97718978
-0.061151136 -0.11731409 0.97611016
-0.05499696 -0.11519202 0.97391349
-0.028950535 -0.11431213 0.97272366
-0.076164819 -0.045911767 0.97524577
-0.077013552 -0.032443374 0.97854996
-0.075230107 -0.02694335 0.97781414
-0.11595029 -0.18385293 0.9851746
-0.10721821 -0.18367647 0.98564529
-0.080834076 -0.18073122 0.98731774
-0.079738155 -0.18273728 0.98731774
-0.11430383 -0.17811404 0.98379886
-0.10530493 -0.17467715 0.98460966
-0.095930979 -0.17202124 0.98748523
-0.083573863 -0.17571607 0.9873178
-0.076401465 -0.17291281 0.98094475
-0.10170897 -0.16801707 0.98549765
-0.094832465 -0.1650645 0.98374414
-0.084869891 -0.1630117 0.98570335
-0.067472115 -0.16021731 0.98550957
-0.092326984 -0.15820998 0.98373687
-0.084315352 -0.15757199 0.98399144
-0.066448539 -0.15383083 0.98506641
-0.059056036 -0.15322085 0.98889315
-0.080220446 -0.1482726 0.98038787
-0.065017872 -0.14575918 0.98473424
-0.057563465 -0.14278486 0.98432195
-0.063611232 -0.13545385 0.98411393
-0.055756666 -0.13535143 0.98529387
-0.049129929 -0.13460656 0.98756886
-0.062357202 -0.12835453 0.98439705
-0.054903619 -0.12519243 0.98339361
-0.045453336 -0.12370067 0.98610508
-0.035227235 -0.12202003 0.98934186
-0.052325182 -0.11577191 0.98294157
-0.044665057 -0.11502163 0.98455572
-0.036199149 -0.1137891 0.98595536
-0.076107197 -0.037365511 0.98277313
-0.11474445 -0.19022554 0.99581277
-0.11474303 -0.18510236 0.99668401
-0.1065338 -0.18308127 0.99538302
-0.09815412 -0.18121766 0.9960357
-0.076806165 -0.18113554 0.99004662
-0.11242101 -0.17780298 0.9948684
-0.10409721 -0.17569484 0.99541461
-0.09563525 -0.17356552 0.99536824
-0.084150366 -0.17208199 0.99287015
-0.076361425 -0.17568307 0.9924674
-0.10271552 -0.16862817 0.99461174
-0.093800403 -0.16500956 0.99389774
-0.085085638 -0.16569003 0.99593025
-0.075039551 -0.16342676 0.99431562
-0.067327008 -0.16224992 0.99532282
-0.092946388 -0.1592034 0.99261242
-0.083099589 -0.15821181 0.99204719
-0.064846665 -0.15575184 0.99474198
-0.05850596 -0.15194759 0.99523652
-0.063775413 -0.14621705 0.99317181
-0.055527311 -0.14546821 0.99610645
-0.048925769 -0.14295529 0.99852711
-0.062588446 -0.13593014 0.99143308
-0.054630667 -0.13536672 0.99482101
-0.046448953 -0.13433024 0.99585891
-0.061834596 -0.12758844 0.99129438
-0.053925686 -0.12752759 0.99322665
-0.045307145 -0.12495664 0.99460739
-0.036617242 -0.12388075 0.99562943
-0.041113727 -0.11780386 0.99712747
-0.033875868 -0.11603349 0.99443018
-0.10852876 -0.1919166 1.0065845
-0.11490752 -0.18630858 1.0052119
-0.10544351 -0.1834705 1.0050324
-0.097672671 -0.18143164 1.0090468
-0.11118992 -0.1796612 1.0037899
-0.10356566 -0.17698465 1.0053527
-0.095526241 -0.17512836 1.0045675
-0.084415957 -0.17298414 1.0070124
-0.075834565 -0.17088541 1.0063434
-0.10023092 -0.16803007 1.0085595
-0.093473755 -0.16683684 1.0035059
-0.084398754 -0.16598645 1.0047922
-0.074806765 -0.16516398 1.0046775
-0.066341519 -0.16416217 1.0072384
-0.072409444 -0.15759906 1.0040126
-0.064906739 -0.15597709 1.0052501
-0.057703488 -0.15422687 1.0046895
-0.062178414 -0.14648114 1.0028791
-0.054675888 -0.14577042 1.0055007
-0.046345264 -0.14259964 1.0061632
-0.053733815 -0.13785139 1.0054406
-0.032358043 -0.11659607 1.0016528
-0.024717037 -0.11635258 1.0041231
-0.11628717 -0.19212569 1.0145147
-0.10800301 -0.19050187 1.0132692
-0.11392554 -0.18685472 1.0145671
-0.10517574 -0.1852764 1.0150568
-0.096872859 -0.18316406 1.0152128
-0.085067779 -0.18143164 1.0179139
-0.11186868 -0.17934878 1.0100665
-0.10407595 -0.17626983 1.0149642
-0.093727767 -0.1746868 1.0138776
-0.084910229 -0.17286056 1.0160154
-0.075041071 -0.17162034 1.0150751
-0.068189979 -0.1707212 1.0177994
-0.093737781 -0.1682536 1.0116613
-0.083886854 -0.16752127 1.0150459
-0.073528238 -0.16704002 1.0151274
-0.066489354 -0.16560026 1.015385
-0.057711087 -0.16321397 1.0176996
-0.063975319 -0.15624647 1.0141653
-0.056375381 -0.15344459 1.0143148
-0.049277414 -0.15185753 1.0136672
-0.0618647 -0.14696813 1.0143766
-0.0540535 -0.14466147 1.0148011
-0.046929546 -0.1429498 1.0164281
-0.05320346 -0.13707347 1.0161402
-0.044243965 -0.13621256 1.0142066
-0.035557959 -0.13343729 1.0155294
-0.0283454 -0.13217027 1.0157745
-0.040868111 -0.12883523 1.015537
-0.11482899 -0.19440371 1.0245632
-0.10702073 -0.19237371 1.0256888
-0.11261647 -0.18612689 1.0240654
-0.10453778 -0.18460672 1.0268377
-0.096773997 -0.18161362 1.0251852
-0.08452823 -0.18150064 1.029763
-0.077697031 -0.18143164 1.0229571
-0.10327589 -0.17717539 1.0251824
-0.094749689 -0.17595977 1.0241189
-0.086036511 -0.17364207 1.0261031
-0.07553713 -0.17387591 1.0251243
-0.067153096 -0.17206773 1.0266768
-0.092843309 -0.1691004 1.0243803
-0.084080003 -0.16706401 1.024796
-0.074522451 -0.16637462 1.0262213
-0.065698467 -0.16454461 1.023662
-0.059782185 -0.1630148 1.0240825
-0.07148394 -0.15794821 1.0279169
-0.064620733 -0.15628736 1.0228381
-0.055762086 -0.15457131 1.0255519
-0.060814541 -0.14885382 1.0232652
-0.054102287 -0.14613272 1.0236726
-0.04607559 -0.14433461 1.0233345
-0.037105456 -0.14013997 1.0299598
-0.044123497 -0.13751404 1.0232744
-0.035707168 -0.13502106 1.023246
-0.026767753 -0.13233441 1.0210711
-0.033668026 -0.12843159 1.0266721
-0.024632076 -0.12655255 1.0227753
-0.014834124 -0.12506826 1.0237885
-0.11544393 -0.19371694 1.0318218
-0.10742897 -0.19198444 1.0327417
-0.11389586 -0.18412623 1.032913
-0.10415487 -0.18611088 1.0339831
-0.098979816 -0.18136369 1.0326456
-0.081186473 -0.18150064 1.0320239
-0.11135682 -0.17947851 1.032913
-0.10258327 -0.17770645 1.0356946
-0.094817363 -0.17574686 1.0340496
-0.084736206 -0.17290704 1.0339079
-0.075479783 -0.17337584 1.0354972
-0.06699425 -0.17314707 1.0343609
-0.08570502 -0.16865779 1.0347803
-0.07356365 -0.16686873 1.0368551
-0.065893002 -0.16326037 1.0342699
-0.070318177 -0.15851733 1.0379184
-0.063013025 -0.15754384 1.0329682
-0.057213016 -0.15434444 1.033197
-0.060634449 -0.14834374 1.0398802
-0.054472361 -0.14607078 1.0346758
-0.045403741 -0.14335902 1.0352868
-0.03794273 -0.14056319 1.0360268
-0.05283482 -0.13691922 1.0357233
-0.043564901 -0.1344963 1.03381
-0.034032676 -0.13511196 1.0357407
-0.027017457 -0.13291666 1.0352368
-0.034335565 -0.12753648 1.0335317
-0.024760252 -0.12676337 1.03378
-0.11770175 -0.1930223 1.0438266
-0.11384654 -0.18594715 1.0443647
-0.10687716 -0.18307389 1.0440077
-0.10352973 -0.17644349 1.0456402
-0.097472616 -0.174062 1.0464494
-0.084710822 -0.17588927 1.0421104
-0.076205291 -0.17410943 1.0468544
-0.1004157 -0.16888139 1.0454717
-0.093804844 -0.16749924 1.0481071
-0.084341057 -0.1656424 1.0456276
-0.073514886 -0.16469909 1.0465392
-0.066549167 -0.1648646 1.0453111
-0.071456149 -0.15818091 1.0457201
-0.065477274 -0.15472612 1.0446466
-0.05776557 -0.15164794 1.0429354
-0.064069934 -0.14806311 1.0451103
-0.056166615 -0.14458311 1.0456631
-0.053568047 -0.13708232 1.0450677
-0.044975005 -0.13429756 1.0436058
-0.035162155 -0.13197656 1.0444657
-0.035411268 -0.12762702 1.0463302
-0.025700046 -0.12667575 1.0413268
-0.12225271 -0.19334315 1.0514778
-0.11627287 -0.19140206 1.0525746
-0.12283416 -0.18605587 1.057322
-0.11251988 -0.18573134 1.0557756
-0.10555653 -0.18416023 1.0544474
-0.097890586 -0.18069437 1.0526913
-0.11203595 -0.17778683 1.052341
-0.10749583 -0.17579089 1.0540565
-0.095137946 -0.17329721 1.0583431
-0.075007737 -0.1700362 1.0541323
-0.10264605 -0.16912107 1.054929
-0.095530212 -0.16567005 1.0561458
-0.084835649 -0.16732229 1.0565127
-0.074669294 -0.16562609 1.0543528
-0.066595651 -0.16339292 1.0546923
-0.07222113 -0.1545051 1.0537847
-0.063989721 -0.15635833 1.0556564
-0.057552345 -0.15356913 1.0523304
-0.063694522 -0.14811204 1.0576767
-0.054713912 -0.14431076 1.0543714
-0.055092636 -0.13729583 1.0589343
-0.048915979 -0.13755187 1.0520898
-0.12198161 -0.19059965 1.0614274
-0.11472587 -0.19023184 1.0605918
-0.12091929 -0.18865506 1.0614274
-0.11526711 -0.18570326 1.0620013
-0.10743193 -0.18449536 1.0615366
-0.11401421 -0.17601538 1.0614272
-0.10686676 -0.17739515 1.0653148
-0.072895296 -0.16236492 1.0670936
-0.071918622 -0.15618411 1.0659857
-0.067607753 -0.15439451 1.0675246
-0.058223601 -0.15028423 1.0607562
-0.066532291 -0.14876504 1.0666012
-0.055131439 -0.14462405 1.0607564
-0.051523905 -0.13802052 1.0607562
-0.11191118 -0.18158051 1.074795
-0.11243349 -0.17689939 1.0732963
-0.10813519 -0.17466862 1.0747949
-0.10983737 -0.16989237 1.0726969
