# .PCD v0.7 - Point Cloud Data file format
VERSION 0.7
FIELDS x y z
SIZE 4 4 4
TYPE F F F
COUNT 1 1 1
WIDTH 346
HEIGHT 1
VIEWPOINT 0 0 0 1 0 0 0
POINTS 346
DATA ascii
0.084882751 -0.093559377 0.89814907
0.075838722 -0.084490299 0.89434892
0.081324033 -0.085667588 0.89594734
0.066653542 -0.072267614 0.89342195
0.073480934 -0.073609143 0.89690936
0.063656904 -0.068068139 0.89485759
0.10310239 -0.11554801 0.90782887
0.088550769 -0.10090595 0.90100473
0.095233314 -0.10403098 0.9041782
0.10130679 -0.1048927 0.90740192
0.088821806 -0.097083993 0.90417373
0.094652027 -0.094464242 0.90664244
0.10051861 -0.092973523 0.90819347
0.086035594 -0.085150391 0.90503842
0.0911716 -0.084622622 0.90575242
0.068621129 -0.071846098 0.90625751
0.07645496 -0.074686624 0.90445673
0.082592562 -0.075838894 0.90389085
0.057536203 -0.063810214 0.90381771
0.064780451 -0.066639498 0.90497726
0.075083792 -0.068705745 0.90824586
0.08245606 -0.069388613 0.90892798
0.061664153 -0.059456572 0.90738416
0.11747988 -0.1201054 0.91437906
0.10855456 -0.11508499 0.91441417
0.11325814 -0.11846565 0.91549855
0.099062055 -0.10033135 0.9110207
0.10552803 -0.10521965 0.91503739
0.10373183 -0.093400553 0.91686517
0.09656886 -0.08474119 0.91516531
0.10089938 -0.08760415 0.91251689
0.069277257 -0.070114791 0.91590071
0.074877903 -0.070511967 0.91590112
0.085987575 -0.074052095 0.91377205
0.092159934 -0.075828657 0.91273481
0.057128441 -0.064129435 0.91158813
0.064835891 -0.066432744 0.91306692
0.074637175 -0.065371059 0.91158801
0.081087768 -0.065828502 0.91158801
0.061515059 -0.057123847 0.91711104
0.11621532 -0.12331096 0.92432714
0.11507275 -0.11617073 0.92498165
0.12207387 -0.1160044 0.92775893
0.11322472 -0.10543909 0.9261657
0.10689268 -0.095852107 0.92414033
0.11079231 -0.09419167 0.92567879
0.096460171 -0.082698718 0.92486978
0.10378163 -0.086287498 0.92594826
0.11084364 -0.089262165 0.92953587
0.094174542 -0.075213514 0.92179137
0.065359302 -0.062825903 0.92121691
0.075712577 -0.064173095 0.92474788
0.08499521 -0.064977936 0.92451489
0.091926001 -0.068599939 0.92563874
0.056190889 -0.055423234 0.92586803
0.063866004 -0.057887979 0.92480731
0.071149386 -0.059278585 0.92416435
0.11794712 -0.12183607 0.93269324
0.11810605 -0.11211362 0.93068862
0.1229642 -0.11605702 0.93721962
0.11788972 -0.10491198 0.93641615
0.12009569 -0.10146557 0.93925524
0.11367372 -0.096633665 0.93317449
0.10655335 -0.08482296 0.93762362
0.1136803 -0.087651394 0.93962187
0.088590972 -0.071439281 0.93299836
0.095998414 -0.073232934 0.9320457
0.10267679 -0.076244757 0.93446136
0.066356055 -0.061777472 0.9344666
0.075042889 -0.062373579 0.93437725
0.0846304 -0.064946257 0.93549138
0.093197495 -0.067593902 0.9360925
0.10129962 -0.068778485 0.93564439
0.055466171 -0.055914052 0.9341386
0.063629769 -0.056683328 0.93400091
0.074489526 -0.057942975 0.9336471
0.082055017 -0.05847948 0.93364704
0.12377428 -0.11138113 0.94145155
0.11948699 -0.1001217 0.94999355
0.12413199 -0.10481042 0.94661337
0.11683227 -0.091993876 0.9463675
0.12060815 -0.094239041 0.94486535
0.10685308 -0.081837311 0.94411957
0.11198282 -0.083219074 0.94335771
0.09619455 -0.072175868 0.94166839
0.10383639 -0.07492654 0.94546628
0.11065984 -0.076762311 0.94808912
0.065840773 -0.063524894 0.94641685
0.075317822 -0.063767649 0.94672567
0.085891709 -0.065172769 0.94624364
0.092936978 -0.066335164 0.94576603
0.10148367 -0.066410258 0.94615948
0.045218334 -0.058038313 0.94756788
0.054638784 -0.057813168 0.94472122
0.062839776 -0.059059765 0.94644284
0.075016603 -0.059146535 0.94131452
0.082682639 -0.059690174 0.94131458
0.015178738 -0.026007712 0.94489121
0.0073122419 -0.017874921 0.94994462
0.01403303 -0.018351525 0.94994479
0.020380441 -0.01880165 0.94994473
0.12605132 -0.10402635 0.95732921
0.1185514 -0.095197126 0.95368886
0.12163237 -0.094969206 0.95402551
0.12120701 -0.089107007 0.95839304
0.098156385 -0.071708202 0.95113665
0.10658084 -0.073397435 0.95417607
0.11331914 -0.077007882 0.95691067
0.045549121 -0.060161166 0.95674932
0.055393338 -0.060859259 0.95674914
0.074714474 -0.063630283 0.95574933
0.086619206 -0.063073635 0.95674908
0.095354334 -0.0651545 0.95570505
0.10389117 -0.067572996 0.95441216
0.053901076 -0.056312542 0.95669049
0.064430766 -0.057703149 0.95870662
0.074354827 -0.058555175 0.959324
0.083525456 -0.058313154 0.95639151
0.091892913 -0.059341773 0.95742059
0.018118497 -0.023569873 0.95473295
0.023815345 -0.024929171 0.95712084
-0.0024460752 -0.014201018 0.95670396
0.0052726208 -0.015061458 0.95604545
0.014074909 -0.017798876 0.95778483
0.02041853 -0.016266003 0.9596166
-0.012977055 -0.0069148662 0.95353693
-0.006646296 -0.0080765681 0.95419931
0.00036790862 -0.0099673634 0.95477563
0.12720469 -0.10339403 0.9680928
0.11942657 -0.090763718 0.96691883
0.12406825 -0.096781507 0.96269226
0.11634257 -0.083751857 0.96511859
0.12164411 -0.085560404 0.96430111
0.10756315 -0.072092585 0.96662456
0.11163197 -0.074874125 0.96652406
0.058401868 -0.066176243 0.96230036
0.087930501 -0.06369888 0.96552712
0.095069632 -0.064228453 0.96550781
0.1024875 -0.066872574 0.96401674
0.093532726 -0.057850357 0.96987087
0.10108318 -0.058385793 0.96987063
0.017642701 -0.021815155 0.96410334
0.025670644 -0.024165086 0.96433187
0.034338973 -0.026675219 0.96687353
-0.021713946 -0.010790854 0.96939248
-0.014523726 -0.010947367 0.96721399
-0.0045342059 -0.011379798 0.96551287
0.0054706768 -0.012834287 0.96626908
0.013998005 -0.01575654 0.9672575
0.021949178 -0.017322222 0.96720207
-0.023442898 -0.0066013294 0.96380478
-0.017060392 -0.0086688278 0.96278155
-0.0055356836 -0.0069850199 0.96436995
0.0039211777 -0.0076556513 0.96436995
0.1233758 -0.10359898 0.97821116
0.1185372 -0.092800222 0.97548229
0.12315622 -0.096533917 0.9729833
0.11461592 -0.085374542 0.97544128
0.10918196 -0.076528095 0.97664994
0.1114871 -0.076644123 0.97668374
0.097648188 -0.063842207 0.97528732
0.10426775 -0.066987939 0.97342706
0.094650984 -0.050076179 0.97521245
0.091694959 -0.049326308 0.9755736
0.019673139 -0.022618471 0.97211373
0.026504893 -0.023539662 0.97449416
0.054859459 -0.026533036 0.97984886
0.061750412 -0.027021706 0.97984886
-0.0050309552 -0.01312675 0.97703868
0.0049168682 -0.013543264 0.97721934
0.01451823 -0.016481943 0.97579116
0.02483833 -0.01860016 0.97491634
0.033537969 -0.019795582 0.97455025
-0.021399368 -0.0063548512 0.97219718
-0.015104074 -0.0075907367 0.97555661
-0.0057465159 -0.0086361859 0.97697812
0.0045005516 -0.0091787083 0.9747116
0.011142268 -0.0092157144 0.9718529
0.12942965 -0.12174569 0.98687446
0.13378346 -0.12205444 0.98687446
0.12663512 -0.11276992 0.98232549
0.13482474 -0.11471189 0.98130625
0.12481257 -0.10610403 0.98718178
0.11892117 -0.093961574 0.98501819
0.12202819 -0.095150255 0.984312
0.1149369 -0.083874837 0.98403198
0.12132787 -0.087556541 0.98972315
0.10624468 -0.071481541 0.98196721
0.11242989 -0.07640741 0.98623139
0.1035382 -0.062146205 0.98632681
0.088354908 -0.051458411 0.98324865
0.095126793 -0.054407682 0.98343736
0.10119232 -0.056992754 0.98519528
0.084722906 -0.04389875 0.98504359
0.092148721 -0.047364771 0.98613888
0.047827817 -0.031404495 0.98529428
0.054814171 -0.031899936 0.98529434
0.065222219 -0.034155872 0.98431474
0.0739429 -0.035443399 0.98388261
0.081186481 -0.037204456 0.98307788
0.019699901 -0.02007661 0.98236579
0.025825197 -0.020510985 0.98236603
0.035327032 -0.023473348 0.98471224
0.045204729 -0.026536191 0.98713422
0.055095926 -0.027926641 0.98784071
0.063080311 -0.028492857 0.98784065
0.073060811 -0.029200621 0.98784065
-0.011250931 -0.010077432 0.98723358
-0.0046437629 -0.01117427 0.98684394
0.0035712959 -0.013601619 0.98570019
0.015466564 -0.016215578 0.98459738
0.023351142 -0.015809638 0.98520124
0.033759102 -0.01714379 0.98483157
-0.01569768 -0.0084417267 0.9867878
-0.0047788979 -0.0060471548 0.98571843
0.0018175343 -0.0071637817 0.98958629
0.13532218 -0.12237462 0.99819863
0.12844653 -0.11577565 0.99129659
0.13131259 -0.11370452 0.99298555
0.12545651 -0.10373645 0.99271148
0.13214813 -0.10700379 0.99793166
0.12575188 -0.094371684 0.99569982
0.13006611 -0.090636544 0.99856484
0.11642826 -0.083276354 0.99248964
0.12160537 -0.083643489 0.99248981
0.11597579 -0.075138561 0.99809259
0.12142262 -0.075524829 0.99809265
0.1057116 -0.063681133 0.99521494
0.1112252 -0.064618319 0.99484938
0.097316287 -0.054316122 0.99371862
0.10345743 -0.056269079 0.99966484
0.110621 -0.056854602 0.99998927
0.079641096 -0.040803257 0.99925786
0.086223535 -0.04388687 0.9975726
0.093780428 -0.047160886 0.99580294
0.065390058 -0.032278538 0.99465078
0.076053567 -0.0359318 0.99280685
0.082922049 -0.038990457 0.99116367
0.026248515 -0.022356685 0.99265438
0.035488084 -0.023302285 0.99420017
0.045481894 -0.025292752 0.99533117
0.054727286 -0.027588511 0.99625319
0.062506586 -0.028184939 0.99634188
-0.014937616 -0.011226514 0.99514592
-0.0059551778 -0.011863504 0.99514592
0.0048953667 -0.014446938 0.99403095
0.014458923 -0.015729794 0.99365872
0.024895601 -0.017452018 0.99305403
0.035689827 -0.018686555 0.99276561
0.043674216 -0.019252768 0.99276561
-0.014377302 -0.0033252565 0.99994332
-0.0053948606 -0.0039622448 0.99994338
0.0045856289 -0.0046700099 0.99994338
0.011571971 -0.0051654452 0.99994332
0.13635004 -0.11484098 1.0038068
0.14149439 -0.11480953 1.0040957
0.1287041 -0.10112532 1.0019869
0.13484873 -0.10429019 1.0045525
0.14195545 -0.10888784 1.0084009
0.13531908 -0.097595155 1.0048236
0.1420477 -0.098072305 1.0048236
0.12542136 -0.082133718 1.004238
0.13064283 -0.082504004 1.0042381
0.11650638 -0.071665406 1.0023183
0.12423365 -0.076172031 1.0080693
0.13092057 -0.07858745 1.0069227
0.1082223 -0.062730432 1.0060548
0.11423943 -0.065493397 1.004504
0.097443454 -0.051964004 1.002574
0.10483737 -0.056210853 1.0063484
0.11237778 -0.059036367 1.0086714
0.086019583 -0.043685693 1.0073695
0.094767928 -0.047051631 1.0056183
0.10181704 -0.048185103 1.0052137
0.056596011 -0.031180819 1.0043025
0.066232063 -0.033116531 1.0035162
0.075851031 -0.036058906 1.002097
0.082879879 -0.036349617 1.0022278
0.037145048 -0.021298051 1.0018995
0.045608412 -0.025677349 1.0059007
0.053689074 -0.026426645 1.0060874
0.065085128 -0.027851691 1.0067406
0.015350966 -0.017831203 1.0014333
0.025491087 -0.018410329 1.001518
0.032675207 -0.016666638 1.0028851
0.040257704 -0.012535819 1.005717
0.13781956 -0.10456046 1.011274
0.14224009 -0.10487395 1.011274
0.13537346 -0.092067152 1.0198482
0.12890431 -0.082876109 1.0146766
0.13415852 -0.085913293 1.0128591
0.14075957 -0.08924149 1.0109086
0.12540455 -0.075601675 1.0177448
0.13104089 -0.076988116 1.0187346
0.10632945 -0.060641959 1.0176573
0.11514419 -0.065706357 1.0147579
0.12187675 -0.06934987 1.012679
0.099285714 -0.053985097 1.0113442
0.10354798 -0.05377629 1.0116715
0.11196431 -0.054884195 1.0113442
0.076928906 -0.042128164 1.0178608
0.085050419 -0.045090206 1.0163633
0.093561836 -0.048940931 1.0143114
0.056848079 -0.03297998 1.0127889
0.066253647 -0.03524312 1.0133984
0.073621862 -0.038200371 1.0128026
0.085724607 -0.03899087 1.0103203
0.029307086 -0.022893911 1.0177647
0.035554834 -0.023336971 1.0177649
0.056380659 -0.024813831 1.0177648
0.06471099 -0.025404572 1.0177647
-0.012317353 -0.013731824 1.0119923
-0.0051320842 -0.014241364 1.0119925
0.0045164148 -0.013776897 1.0126791
0.015397247 -0.0156972 1.0119925
0.025534136 -0.016515536 1.0119331
0.034999557 -0.015678022 1.0128355
0.045125011 -0.018369049 1.0116551
0.052310281 -0.018878592 1.0116551
0.0036067942 -0.007390223 1.0164325
0.12710825 -0.083319582 1.0253662
0.13323404 -0.086436361 1.0235633
0.11873223 -0.07205826 1.0214187
0.12366369 -0.072846279 1.0218632
0.13126138 -0.076234087 1.0247521
0.11485187 -0.06692417 1.0245904
0.12229346 -0.068117291 1.0241606
0.088678747 -0.051201757 1.0228939
0.095144905 -0.053536639 1.0217011
0.10375189 -0.055811476 1.0206429
0.11090942 -0.056843627 1.0203094
0.087890841 -0.047115911 1.0254254
0.092179894 -0.04742007 1.0254254
0.069022737 -0.031522416 1.0240533
0.073248938 -0.031822123 1.0240533
0.028142221 -0.024018114 1.0268281
0.034738868 -0.025829976 1.0260184
0.043705966 -0.029154018 1.0243993
-0.0057745632 -0.015838984 1.0205046
0.0062985397 -0.014810755 1.0216233
0.014478208 -0.016758146 1.0208117
0.02460099 -0.018013366 1.0204924
0.034794249 -0.019304786 1.020155
0.040000703 -0.019674001 1.020155
0.0062156785 -0.0090923794 1.0249845
0.011422135 -0.0094615938 1.0249845
