# .PCD v0.7 - Point Cloud Data file format
VERSION 0.7
FIELDS x y z
SIZE 4 4 4
TYPE F F F
COUNT 1 1 1
WIDTH 963
HEIGHT 1
VIEWPOINT 0 0 0 1 0 0 0
POINTS 963
DATA ascii
-0.20900992 -0.14118503 0.91948789
-0.32216996 -0.13210313 0.91806144
-0.29037043 -0.13009815 0.91837853
-0.22343624 -0.13192199 0.91948789
-0.21478045 -0.13747983 0.91948795
-0.17298792 -0.13153547 0.91982734
-0.33755025 -0.12408114 0.91434586
-0.32055169 -0.12914088 0.91806144
-0.31785452 -0.12420379 0.91806138
-0.30509296 -0.12338932 0.91546452
-0.28723162 -0.12435252 0.91837871
-0.27016747 -0.12024217 0.91845793
-0.25691301 -0.122893 0.91866529
-0.24398892 -0.12091805 0.91760021
-0.23138744 -0.12603882 0.91963428
-0.224667 -0.12346019 0.91675633
-0.21454445 -0.1244541 0.91681015
-0.20452689 -0.12433118 0.91891438
-0.19410755 -0.12128931 0.91885036
-0.1851075 -0.12375357 0.91982746
-0.17764929 -0.12854242 0.91982734
-0.13010783 -0.12001491 0.91945821
-0.12808372 -0.12015846 0.91945821
-0.33301151 -0.11405779 0.91349185
-0.32987884 -0.11003871 0.91434586
-0.3134174 -0.11429983 0.917202
-0.30181468 -0.11444935 0.91406405
-0.29925019 -0.11269423 0.91546452
-0.28241533 -0.11454967 0.91792226
-0.27686113 -0.11084829 0.9152962
-0.26613578 -0.11342473 0.9163276
-0.25342223 -0.11373581 0.91808558
-0.24577704 -0.11622805 0.91818124
-0.23363172 -0.11424283 0.91763484
-0.22606505 -0.11574923 0.91721165
-0.21505186 -0.11450159 0.91924387
-0.20437816 -0.11371396 0.91897261
-0.19536249 -0.11716893 0.9198274
-0.18231897 -0.11112615 0.91908979
-0.16115254 -0.11103144 0.91746539
-0.15590523 -0.11537375 0.91864759
-0.14427665 -0.11901013 0.91945833
-0.13516812 -0.11965607 0.91945827
-0.33118862 -0.10671841 0.91149795
-0.32690072 -0.10363435 0.91387159
-0.31112102 -0.10608648 0.91526711
-0.30687559 -0.10474244 0.91668832
-0.29561922 -0.10457818 0.9147644
-0.28316388 -0.10504033 0.91302603
-0.27556592 -0.10389581 0.91689265
-0.26466006 -0.10567514 0.9174161
-0.25373238 -0.10304852 0.91638839
-0.24599688 -0.10521983 0.91689122
-0.23419195 -0.10565312 0.91822934
-0.22257644 -0.10499835 0.91756356
-0.21584389 -0.1045699 0.9184944
-0.20570427 -0.10518686 0.91817099
-0.19757366 -0.10416087 0.91559011
-0.18058616 -0.10718585 0.91879624
-0.17538628 -0.10414721 0.91903919
-0.16484644 -0.1051311 0.91806155
-0.15956795 -0.10981357 0.91815776
-0.32279554 -0.094873592 0.91325074
-0.30342948 -0.094903111 0.9166646
-0.29183048 -0.095846921 0.91390848
-0.28509846 -0.094393447 0.9167462
-0.2744208 -0.095720224 0.91696471
-0.26461953 -0.09351594 0.9154461
-0.25723013 -0.096795753 0.91737419
-0.24329849 -0.095310077 0.91783208
-0.2341194 -0.09390825 0.91844457
-0.22602534 -0.095514767 0.91770244
-0.21482402 -0.095310599 0.91741949
-0.20474091 -0.096088268 0.91874802
-0.19638792 -0.09426216 0.91849321
-0.18303888 -0.09570659 0.9175998
-0.17302603 -0.095087253 0.91870332
-0.16561438 -0.096830681 0.91916245
-0.15574607 -0.093802042 0.91967463
-0.14295372 -0.095425598 0.91954458
-0.13409391 -0.096053891 0.91954452
-0.32077748 -0.087660819 0.91149801
-0.3170301 -0.085199736 0.91368866
-0.30087194 -0.087325566 0.91526711
-0.29732609 -0.084454767 0.91701376
-0.28565681 -0.08573696 0.91447616
-0.27236581 -0.087761641 0.91637802
-0.26618788 -0.085154593 0.91798645
-0.25346485 -0.084317632 0.91733313
-0.24529526 -0.085189156 0.91828114
-0.23482431 -0.085083187 0.91857117
-0.22422998 -0.084815703 0.91813499
-0.21546264 -0.08719904 0.91861749
-0.20517848 -0.085490189 0.91867167
-0.19444664 -0.087125555 0.91837525
-0.18010154 -0.087778658 0.91784185
-0.17160021 -0.087788686 0.91815776
-0.16790834 -0.086345933 0.91900057
-0.31179625 -0.076938719 0.91434586
-0.30905646 -0.071923569 0.91434592
-0.2912609 -0.075103566 0.91804427
-0.28526536 -0.074399315 0.91692257
-0.27713767 -0.074122474 0.91563845
-0.26112431 -0.07693737 0.91802204
-0.25668511 -0.076694429 0.91897392
-0.24654444 -0.075182341 0.91753721
-0.23242024 -0.076888844 0.91877747
-0.22538529 -0.077747598 0.91862112
-0.21504521 -0.078648701 0.91893303
-0.20445843 -0.077415042 0.91943771
-0.19562015 -0.07801386 0.91924423
-0.30686459 -0.067911446 0.91434586
-0.29648754 -0.063110851 0.91806382
-0.28465429 -0.066262804 0.91803426
-0.27602911 -0.06348449 0.91799283
-0.2558431 -0.066896282 0.91837853
-0.24353382 -0.069386289 0.91807026
-0.231516 -0.069562986 0.91970748
-0.22796789 -0.069909275 0.91866535
-0.29150486 -0.059911527 0.91806382
-0.2890135 -0.058311865 0.91806382
-0.33910424 -0.15188457 0.9265008
-0.320804 -0.15336309 0.92928118
-0.31918567 -0.15040085 0.92928112
-0.28869659 -0.15090695 0.92918146
-0.17595094 -0.15595618 0.92790508
-0.1556696 -0.1542822 0.9277094
-0.14520197 -0.15799257 0.92915738
-0.13555159 -0.15867692 0.92915738
-0.33620694 -0.14469345 0.92559391
-0.32176447 -0.14437647 0.92424393
-0.31697661 -0.14403158 0.92819691
-0.30238992 -0.14472099 0.92768532
-0.29905415 -0.14183779 0.92916244
-0.28601092 -0.14449927 0.92851543
-0.27089387 -0.14556837 0.92908967
-0.26883239 -0.14179492 0.92908967
-0.25514054 -0.14256911 0.92861009
-0.24137834 -0.1447649 0.92899728
-0.23937643 -0.14110045 0.92899728
-0.22369504 -0.1433541 0.92804676
-0.21188883 -0.14122796 0.92704451
-0.20363149 -0.14127024 0.92236286
-0.19436145 -0.14351109 0.92578489
-0.185829 -0.14598034 0.92802602
-0.17354669 -0.14468619 0.92550826
-0.16398691 -0.14681625 0.92576647
-0.15653443 -0.14687668 0.92722237
-0.13471983 -0.14713262 0.92742151
-0.12549128 -0.14533858 0.92693919
-0.33337072 -0.13534155 0.92358959
-0.32325667 -0.13512133 0.92249793
-0.31470877 -0.1346224 0.92573088
-0.30334225 -0.13466428 0.92414093
-0.29679939 -0.13549481 0.92814702
-0.28357643 -0.13509603 0.92629933
-0.27288735 -0.13456087 0.92385226
-0.26613837 -0.13469233 0.92813647
-0.25305974 -0.13482608 0.9269219
-0.24468982 -0.13239568 0.92569655
-0.23671493 -0.13408786 0.92809641
-0.22395752 -0.1335407 0.92610037
-0.21439804 -0.13365094 0.92727119
-0.20676813 -0.13416974 0.92771107
-0.19521362 -0.13402857 0.92779464
-0.18559514 -0.13317087 0.92657232
-0.17554177 -0.13394219 0.92850536
-0.16558349 -0.13392259 0.92681253
-0.15434551 -0.1327388 0.92736661
-0.14411671 -0.13402486 0.92784601
-0.13527356 -0.13368145 0.92685431
-0.12496384 -0.13482697 0.92754066
-0.33202171 -0.12710139 0.92080033
-0.32822108 -0.12338933 0.92237228
-0.31451818 -0.12559906 0.92164052
-0.3026664 -0.12751682 0.92202258
-0.2975336 -0.12402298 0.92225403
-0.28177705 -0.12608898 0.92372912
-0.27652621 -0.12470035 0.92471838
-0.266341 -0.12530735 0.92384183
-0.25172693 -0.1264503 0.92436773
-0.24696593 -0.12409674 0.92499709
-0.2345771 -0.1238727 0.9243086
-0.22449504 -0.12540622 0.92527908
-0.21399988 -0.12510195 0.92541635
-0.2051421 -0.12506889 0.92703176
-0.19483751 -0.12588307 0.92657822
-0.18513022 -0.12551773 0.92721868
-0.17467216 -0.1248941 0.92760932
-0.16515991 -0.12527341 0.92754239
-0.15553232 -0.1246187 0.92751104
-0.14498086 -0.12482899 0.92772812
-0.13524902 -0.12336813 0.92755932
-0.32539311 -0.11613598 0.92136651
-0.31104532 -0.11766683 0.92089665
-0.3088876 -0.11371715 0.92089665
-0.29328415 -0.11501335 0.92168236
-0.28915358 -0.11189773 0.92374629
-0.27621275 -0.11590352 0.92372912
-0.26383981 -0.11616113 0.92181945
-0.24458987 -0.11454852 0.92316699
-0.23403409 -0.11510321 0.9226101
-0.22428992 -0.1157954 0.92376006
-0.21519417 -0.11538272 0.92379463
-0.20490535 -0.11567447 0.92365688
-0.19551435 -0.11485175 0.92463231
-0.18507522 -0.1159697 0.92440861
-0.17468445 -0.11475333 0.92490184
-0.16483629 -0.11516634 0.92543489
-0.15469447 -0.11490726 0.92502713
-0.14514354 -0.11444981 0.92602497
-0.13472424 -0.11485796 0.92546099
-0.32161051 -0.1080438 0.92080033
-0.31887072 -0.10302866 0.92080033
-0.29060271 -0.10858115 0.92097491
-0.28794691 -0.10371973 0.92097479
-0.27183735 -0.1078945 0.9237293
-0.26037085 -0.10844542 0.92121196
-0.25598925 -0.10350899 0.92112285
-0.24457079 -0.10403778 0.92215449
-0.2346999 -0.10608258 0.92133731
-0.22591214 -0.10377266 0.92198956
-0.21437453 -0.10521857 0.92233044
-0.20430271 -0.10450427 0.9225778
-0.19504143 -0.10471981 0.92283112
-0.18543094 -0.10476707 0.9230321
-0.17478947 -0.10480323 0.92288226
-0.16431431 -0.10542213 0.92334503
-0.155604 -0.10476287 0.92442399
-0.14470333 -0.10477185 0.92458469
-0.3144871 -0.095004417 0.92080033
-0.2831665 -0.094969206 0.92097485
-0.26308933 -0.094161496 0.92272878
-0.25420707 -0.094013996 0.92121196
-0.24494605 -0.096493959 0.92160839
-0.23496956 -0.094056599 0.92172527
-0.22349043 -0.094414748 0.9217779
-0.21481588 -0.093821965 0.92149734
-0.20568089 -0.093682453 0.92225862
-0.19495505 -0.096322194 0.92281103
-0.18492128 -0.094897643 0.92301881
-0.17523675 -0.095562868 0.92307043
-0.1647018 -0.094512641 0.92294979
-0.15453663 -0.095331982 0.92374098
-0.14527173 -0.095195368 0.92419773
-0.13447218 -0.094651826 0.92373806
-0.31065136 -0.087983191 0.92080033
-0.30791155 -0.082968041 0.92080033
-0.28025848 -0.083142422 0.9203431
-0.2756311 -0.082862243 0.92163455
-0.26470664 -0.086768918 0.92132455
-0.25704557 -0.083698906 0.92196614
-0.24477413 -0.085898943 0.92109215
-0.23523915 -0.084418066 0.92344844
-0.22401255 -0.08462593 0.92184496
-0.21494466 -0.084343836 0.92267561
-0.20432873 -0.084818333 0.92229021
-0.19501737 -0.085808031 0.92218769
-0.18497123 -0.085057877 0.92392063
-0.17518176 -0.085425071 0.92360473
-0.16514444 -0.084627867 0.92402434
-0.15475407 -0.085089378 0.92505276
-0.1449032 -0.084790587 0.92560804
-0.13477777 -0.085123196 0.92592192
-0.30288959 -0.074424274 0.92111498
-0.29614905 -0.074392177 0.92278886
-0.28614792 -0.073447287 0.92060041
-0.27280533 -0.076079108 0.92181343
-0.26546326 -0.07485415 0.92200071
-0.25393763 -0.074194737 0.92382181
-0.24495085 -0.074572124 0.92260838
-0.23426259 -0.073408939 0.92322582
-0.22501098 -0.075261213 0.9240604
-0.21484463 -0.074764781 0.9231835
-0.2048061 -0.073774107 0.92373854
-0.19557227 -0.075388387 0.9253934
-0.18480416 -0.074451819 0.92434853
-0.17508277 -0.075567171 0.92513603
-0.16546457 -0.07513319 0.92588288
-0.15468688 -0.074828468 0.92616177
-0.14453332 -0.075911552 0.92617673
-0.1351084 -0.07481043 0.92655128
-0.30333772 -0.064888485 0.92313617
-0.29482642 -0.065677837 0.92249471
-0.28365919 -0.064599149 0.92142594
-0.27501774 -0.065243647 0.92300624
-0.26630935 -0.066313609 0.9230386
-0.25503111 -0.064423531 0.92549711
-0.24446055 -0.064882524 0.92463785
-0.23532881 -0.065444067 0.92428166
-0.22410883 -0.065614909 0.92620838
-0.21493618 -0.065497376 0.92591852
-0.20530669 -0.065714926 0.92597604
-0.19529979 -0.064948961 0.92678672
-0.18604387 -0.064986348 0.9267745
-0.1736303 -0.065728061 0.92716998
-0.16573389 -0.066521771 0.92691213
-0.15565707 -0.066709921 0.92701441
-0.14406706 -0.065033846 0.92754036
-0.13543993 -0.066763088 0.9270094
-0.12614506 -0.064589299 0.92747599
-0.32294416 -0.051282685 0.92780888
-0.31344193 -0.054480169 0.92407775
-0.30474314 -0.055835448 0.92296928
-0.29515567 -0.054722141 0.92212152
-0.28613585 -0.053230349 0.925538
-0.27398121 -0.055387195 0.92446166
-0.26599476 -0.054071445 0.92560661
-0.25412351 -0.054966521 0.92684108
-0.24421729 -0.055179875 0.92653394
-0.23436308 -0.055356834 0.92574066
-0.22478926 -0.054938793 0.92665237
-0.21483161 -0.054622877 0.92678285
-0.20602305 -0.054241091 0.92742783
-0.19433536 -0.054545697 0.92786759
-0.18485938 -0.05412709 0.92723453
-0.1759747 -0.056132544 0.92841625
-0.16586533 -0.056118589 0.92804104
-0.15677801 -0.055304814 0.92648679
-0.14126718 -0.058756363 0.92901134
-0.13641331 -0.057781309 0.92877024
-0.12470078 -0.059221588 0.92901641
-0.33262065 -0.042383816 0.92757851
-0.32462654 -0.044815551 0.92519695
-0.31676176 -0.04503978 0.92615956
-0.30640337 -0.046547245 0.92491561
-0.29090101 -0.045228943 0.92443407
-0.28433073 -0.045841444 0.92531514
-0.27797878 -0.045804169 0.92614478
-0.26340795 -0.046861 0.9259463
-0.2562781 -0.045669112 0.92616266
-0.24526052 -0.046732027 0.92954862
-0.23356169 -0.046418194 0.92810935
-0.22460853 -0.046292622 0.92870772
-0.21519609 -0.047508277 0.92690754
-0.20458648 -0.048484202 0.92759997
-0.19001104 -0.04921658 0.92719752
-0.18555574 -0.047724541 0.92879933
-0.17432448 -0.048564199 0.92818832
-0.16412616 -0.049124371 0.92792994
-0.33185324 -0.038748838 0.92525923
-0.32637268 -0.03762389 0.92702645
-0.31792268 -0.033395249 0.92790985
-0.30476004 -0.039606787 0.92780894
-0.2855573 -0.039351709 0.92605108
-0.27909759 -0.037519135 0.92768812
-0.26087898 -0.039817408 0.92745626
-0.25644797 -0.038372487 0.92903578
-0.21250497 -0.039884444 0.92949122
-0.33427677 -0.16103375 0.93499106
-0.31557173 -0.161991 0.93762106
-0.28166664 -0.16158612 0.93947679
-0.26625314 -0.16157757 0.93957126
-0.21106604 -0.16328463 0.939897
-0.18320467 -0.16148926 0.93963808
-0.15492773 -0.16259143 0.93416965
-0.33252689 -0.15436147 0.93336731
-0.32879716 -0.15100344 0.93499106
-0.31389862 -0.15521234 0.93593323
-0.30223569 -0.1546725 0.93362641
-0.29814854 -0.15243219 0.93468118
-0.28219277 -0.15453102 0.93600768
-0.27692178 -0.15526801 0.93773466
-0.26486251 -0.15459581 0.93769044
-0.25209662 -0.15449111 0.93598074
-0.2492979 -0.15119225 0.93674099
-0.23404442 -0.15359952 0.93812919
-0.22199182 -0.15245557 0.93505615
-0.21292995 -0.15274253 0.93892932
-0.20486729 -0.15161364 0.93857253
-0.19655299 -0.15208845 0.93811136
-0.18439664 -0.15329078 0.938541
-0.17353253 -0.15198886 0.93830836
-0.16676302 -0.15304172 0.9366883
-0.15601005 -0.1553224 0.93635613
-0.14540307 -0.15481965 0.93620813
-0.13343231 -0.15427521 0.93381071
-0.12613799 -0.15632415 0.93522686
-0.33080345 -0.14860505 0.93214989
-0.32855123 -0.14549416 0.93262333
-0.31158271 -0.14840026 0.9347648
-0.3098565 -0.14524053 0.93476468
-0.29741129 -0.14627016 0.93252325
-0.28101569 -0.14888605 0.93448919
-0.27815673 -0.14609601 0.9355523
-0.26618451 -0.14559703 0.93282843
-0.2528899 -0.14804432 0.93554801
-0.2474084 -0.1455442 0.9349733
-0.23458031 -0.14575687 0.93453443
-0.22200148 -0.14535023 0.93287128
-0.21402444 -0.144715 0.93582559
-0.20483205 -0.14395168 0.93548471
-0.19438194 -0.14418498 0.93525577
-0.18548575 -0.14454491 0.93709981
-0.17465194 -0.14466617 0.93582088
-0.1650593 -0.14408551 0.93654287
-0.15534744 -0.14411588 0.93589044
-0.14527199 -0.14440095 0.93710071
-0.13473162 -0.14400844 0.93628561
-0.29377449 -0.13840981 0.93198365
-0.2626757 -0.13658404 0.93171591
-0.24576244 -0.13864021 0.93420684
-0.23400211 -0.13729581 0.93150222
-0.22129795 -0.13678548 0.93144208
-0.2149871 -0.13528359 0.93234307
-0.20522012 -0.1359248 0.93241698
-0.19365825 -0.13585432 0.93202251
-0.18539539 -0.13492565 0.93286747
-0.17553331 -0.13498849 0.93276066
-0.16427428 -0.13626538 0.93358433
-0.15508308 -0.13544306 0.93359172
-0.14486092 -0.13484129 0.93380117
-0.13464251 -0.13608697 0.93519878
-0.23336819 -0.12284099 0.93074125
-0.21529903 -0.12863046 0.93125808
-0.20613483 -0.12861831 0.93108737
-0.18476996 -0.12795249 0.93123567
-0.17690347 -0.1270695 0.93131441
-0.16366196 -0.12943424 0.93134618
-0.15457131 -0.1270761 0.93163794
-0.14472684 -0.1275584 0.93115044
-0.13442145 -0.12619561 0.93124783
-0.15403266 -0.11786435 0.930942
-0.13005723 -0.11983674 0.93059647
-0.1575947 -0.080975495 0.93062389
-0.14957307 -0.086126104 0.93062383
-0.1752412 -0.071209364 0.93103898
-0.16540876 -0.075501695 0.93096203
-0.15284805 -0.072468251 0.93155026
-0.14527701 -0.07334698 0.93182486
-0.13401115 -0.072820604 0.93101531
-0.23423363 -0.061915398 0.9313513
-0.22528201 -0.065485641 0.93093359
-0.21325412 -0.062885344 0.93173039
-0.20510744 -0.064729244 0.93119824
-0.19740434 -0.062796079 0.93176925
-0.18321839 -0.063394792 0.93182129
-0.17731236 -0.064849027 0.93197352
-0.16501974 -0.063955829 0.93251562
-0.15331712 -0.063908644 0.93253005
-0.14663981 -0.065252051 0.93312234
-0.13570835 -0.06421604 0.93318355
-0.24250989 -0.05567668 0.9318065
-0.23783123 -0.058191601 0.93244439
-0.22269107 -0.053734317 0.93109465
-0.21616012 -0.054635938 0.93394697
-0.20532252 -0.055441655 0.93322742
-0.19447334 -0.05523653 0.93256772
-0.18531005 -0.054763578 0.93495256
-0.17484866 -0.056069795 0.93247598
-0.1649776 -0.055046711 0.93441176
-0.15522753 -0.054814938 0.935076
-0.14524564 -0.055098031 0.93340707
-0.13493899 -0.05532486 0.93500894
-0.33060986 -0.048413616 0.93291485
-0.30495965 -0.043105043 0.93022221
-0.27542576 -0.044089008 0.93225515
-0.26906976 -0.041673135 0.93499106
-0.25375602 -0.042549185 0.9347648
-0.24494375 -0.043974049 0.93339515
-0.23459092 -0.043450378 0.93298703
-0.2232497 -0.044774551 0.93509942
-0.21572258 -0.045095541 0.93623042
-0.20276487 -0.044533398 0.9352631
-0.19533758 -0.045139313 0.93457282
-0.18559299 -0.045566533 0.93437546
-0.17457004 -0.045469146 0.93458575
-0.16656318 -0.04471587 0.93670243
-0.1549471 -0.044760562 0.93493205
-0.14573154 -0.045718387 0.93536907
-0.13480206 -0.046392009 0.93596977
-0.35178831 -0.033383537 0.9344523
-0.34573385 -0.033619404 0.93464631
-0.32738841 -0.031399727 0.93310654
-0.31500971 -0.035189066 0.93501705
-0.30513188 -0.033994999 0.93430984
-0.28650513 -0.033754814 0.93199623
-0.27488568 -0.034430623 0.93624723
-0.26436219 -0.034759123 0.93412304
-0.25558871 -0.03381541 0.93434083
-0.24512112 -0.034368176 0.93616712
-0.23610783 -0.035604808 0.93493658
-0.22408868 -0.03591923 0.93512535
-0.21345796 -0.035654142 0.93675423
-0.20510419 -0.035553258 0.93678451
-0.19689754 -0.036275458 0.93575615
-0.18454501 -0.036997378 0.93578559
-0.17685263 -0.037264835 0.93425608
-0.16627777 -0.03761743 0.93652046
-0.1550786 -0.037926331 0.9357484
-0.14499222 -0.038311273 0.9355793
-0.13474809 -0.036749996 0.93684936
-0.1256872 -0.037154507 0.93543589
-0.36118537 -0.025607351 0.93596286
-0.35685498 -0.026292808 0.93860883
-0.3476519 -0.023257708 0.93679273
-0.32508075 -0.025321003 0.93463403
-0.31457949 -0.026143463 0.93527681
-0.30373991 -0.02314114 0.93817043
-0.2904155 -0.026001157 0.93535596
-0.28550577 -0.025367228 0.93715054
-0.27739668 -0.023747236 0.93614757
-0.26249427 -0.029636769 0.93499106
-0.2545979 -0.024381876 0.93793136
-0.24708217 -0.02509631 0.93763745
-0.23589417 -0.027062051 0.93958884
-0.22535075 -0.026312908 0.93643498
-0.21467265 -0.027667386 0.93627262
-0.20546135 -0.025872754 0.93581736
-0.19637018 -0.027319731 0.93550545
-0.18613097 -0.023100086 0.93877447
-0.17237499 -0.028502963 0.93872559
-0.16681343 -0.024550879 0.93848443
-0.15109935 -0.028262829 0.93828368
-0.13589808 -0.028211348 0.93571085
-0.37183195 -0.019171158 0.93819821
-0.36429632 -0.014287177 0.93816286
-0.35565421 -0.011712542 0.93690383
-0.34443855 -0.016009683 0.93684471
-0.3366546 -0.013322286 0.93860883
-0.32432732 -0.017857889 0.9360286
-0.3159996 -0.015043881 0.93791521
-0.30700707 -0.014938641 0.93444335
-0.29542121 -0.017799765 0.93817031
-0.27389956 -0.017837478 0.93709528
-0.26581615 -0.01566661 0.9365778
-0.25092751 -0.018694546 0.93745852
-0.24527787 -0.017384404 0.93906069
-0.23681781 -0.015660178 0.93820941
-0.22428307 -0.019606657 0.93958896
-0.20441628 -0.019605218 0.93828529
-0.35902354 -0.0083610415 0.93619025
-0.32763398 -0.17182581 0.9455111
-0.31029624 -0.17064247 0.94579238
-0.30737472 -0.17150588 0.94851685
-0.27586925 -0.17034851 0.94769353
-0.25804019 -0.17096397 0.94965744
-0.20198826 -0.17128527 0.9484725
-0.19095825 -0.17024907 0.94537109
-0.15996101 -0.17045289 0.94810122
-0.33086377 -0.16680542 0.94054401
-0.32652459 -0.16513856 0.94339859
-0.31328893 -0.16387913 0.94035232
-0.3063778 -0.16559079 0.94672287
-0.29386491 -0.16459648 0.94348061
-0.2899563 -0.16195743 0.94543988
-0.27483627 -0.16511038 0.94628727
-0.26289347 -0.16370119 0.94302154
-0.25716719 -0.16518603 0.94795364
-0.24496585 -0.16325611 0.94491327
-0.23417132 -0.1617869 0.94132519
-0.22620645 -0.16398041 0.94793844
-0.21393825 -0.16229001 0.94817811
-0.20499124 -0.16306555 0.94798124
-0.19532548 -0.16232759 0.94794697
-0.1843392 -0.16163588 0.94841415
-0.1755314 -0.16226517 0.94900233
-0.16523392 -0.16185483 0.94842148
-0.15631983 -0.16336721 0.94784009
-0.14507799 -0.16382299 0.94545513
-0.32604176 -0.15797876 0.94054407
-0.31059182 -0.15894201 0.94035238
-0.29302251 -0.15688676 0.94079638
-0.27323768 -0.15935217 0.94509774
-0.26109761 -0.15826955 0.94213593
-0.25955153 -0.15543944 0.94213587
-0.24400809 -0.15590538 0.9426493
-0.23166892 -0.15720637 0.94132555
-0.22660688 -0.15687898 0.94486064
-0.21396482 -0.15488003 0.94384933
-0.20454204 -0.15437496 0.94399846
-0.19501346 -0.15535387 0.94502527
-0.18484853 -0.15515019 0.9445734
-0.17543469 -0.15494946 0.94580889
-0.1653008 -0.1545538 0.94514519
-0.15517604 -0.15506418 0.94598824
-0.14530426 -0.15617257 0.94768792
-0.13604054 -0.1550982 0.94643503
-0.21275924 -0.14877938 0.94111544
-0.2032076 -0.1494396 0.94138253
-0.19439131 -0.14934403 0.94314289
-0.18400685 -0.14843144 0.94194651
-0.17428318 -0.14798051 0.94276059
-0.16412912 -0.14836791 0.94326627
-0.15505646 -0.14709982 0.94222784
-0.14510933 -0.14884385 0.94447082
-0.19593215 -0.051024985 0.94031471
-0.18151182 -0.051570959 0.94088948
-0.17883795 -0.05328783 0.94088948
-0.16379572 -0.052440137 0.94022286
-0.15530476 -0.052314304 0.94133127
-0.14547919 -0.052108679 0.94266027
-0.13448827 -0.055070136 0.94126838
-0.21335557 -0.042096835 0.94406396
-0.20643327 -0.042730249 0.94345051
-0.19590098 -0.043198537 0.94159579
-0.18465006 -0.044771262 0.9434303
-0.17677577 -0.043696731 0.94459045
-0.16484992 -0.044002406 0.94260502
-0.15443103 -0.043622322 0.94570673
-0.14512946 -0.044610493 0.94373542
-0.13544695 -0.045894757 0.94497675
-0.25573647 -0.032835588 0.94114995
-0.24100557 -0.03156526 0.94035232
-0.23624837 -0.031139063 0.9429881
-0.22334228 -0.035430085 0.9428367
-0.21462001 -0.035611242 0.94724578
-0.20580761 -0.034598839 0.94510907
-0.19426626 -0.036095053 0.94496185
-0.18364954 -0.037242819 0.94498706
-0.17668945 -0.035137348 0.9458431
-0.16451618 -0.035818819 0.94560093
-0.15510352 -0.034861717 0.94541186
-0.14563909 -0.035535142 0.94579679
-0.13530464 -0.036032114 0.94486243
-0.36639774 -0.023533415 0.94422448
-0.34517658 -0.022265431 0.94122416
-0.31315705 -0.020929813 0.94358224
-0.30307505 -0.026136987 0.94064039
-0.29683602 -0.022130957 0.94064039
-0.2734063 -0.025442306 0.94267648
-0.26813582 -0.022058157 0.94267648
-0.25364432 -0.029262016 0.94227964
-0.24447712 -0.023629874 0.9449445
-0.23542993 -0.025387144 0.94340497
-0.22673333 -0.024281451 0.94400775
-0.2154969 -0.023667987 0.94508314
-0.20336449 -0.027557822 0.94564402
-0.19546719 -0.024320383 0.9455533
-0.18310085 -0.025740739 0.94400078
-0.17553928 -0.024813633 0.94449598
-0.16418603 -0.027571836 0.94444162
-0.15608771 -0.027342858 0.9455784
-0.14481607 -0.027143167 0.94268489
-0.38102323 -0.013234867 0.94188017
-0.37748626 -0.013745499 0.94404882
-0.36080408 -0.019941781 0.94422454
-0.35707498 -0.017547358 0.94422448
-0.34058559 -0.019317584 0.94122434
-0.3359946 -0.016369738 0.94122416
-0.3104434 -0.019187409 0.94358224
-0.30682522 -0.016864207 0.94358224
-0.29237956 -0.019269506 0.94064033
-0.28488708 -0.016235489 0.94191122
-0.2637437 -0.019238029 0.94267642
-0.24270049 -0.016356112 0.94551104
-0.23694026 -0.015092479 0.94547284
-0.22137442 -0.014083429 0.94851679
-0.21588737 -0.017269356 0.94381207
-0.23794717 -0.0091849994 0.94620264
-0.31841347 -0.18142137 0.95723522
-0.30188426 -0.18036637 0.95666677
-0.29924023 -0.18181083 0.95932788
-0.28324002 -0.18077604 0.95856464
-0.17598575 -0.18150064 0.95884782
-0.32147691 -0.17505921 0.95198786
-0.31771028 -0.17546336 0.95519292
-0.30398303 -0.17473242 0.95260108
-0.29788259 -0.17636824 0.95807558
-0.28479713 -0.17419083 0.95462865
-0.27330339 -0.1735273 0.95442802
-0.26691839 -0.17437932 0.95610487
-0.25413749 -0.17334098 0.95348704
-0.24677061 -0.17461079 0.95807296
-0.23516485 -0.17299432 0.95586109
-0.22232436 -0.17301702 0.95414913
-0.21621577 -0.17207931 0.95823103
-0.2047817 -0.17185965 0.95718569
-0.19472748 -0.17283039 0.95610958
-0.18437581 -0.17196529 0.95758933
-0.17586613 -0.17304461 0.95752645
-0.16433857 -0.17362335 0.95761508
-0.15480803 -0.17197913 0.95763069
-0.14479946 -0.17352706 0.95653975
-0.31823355 -0.16849582 0.95171201
-0.30288455 -0.16956306 0.95124573
-0.28638536 -0.16794814 0.95079368
-0.26824155 -0.16863769 0.95277345
-0.25299418 -0.16800435 0.95219392
-0.23618005 -0.16819708 0.95326614
-0.22306128 -0.16666682 0.95121062
-0.21374957 -0.16751686 0.95488346
-0.20491883 -0.16697447 0.95437843
-0.19513327 -0.16559429 0.95306641
-0.18511134 -0.16666147 0.95549357
-0.1746057 -0.16588265 0.95472658
-0.16505696 -0.16528441 0.95514011
-0.15486255 -0.1660535 0.95622122
-0.14487393 -0.16544478 0.95503312
-0.13495013 -0.1645502 0.95611662
-0.20538013 -0.15984616 0.9505412
-0.19144458 -0.15971094 0.95037138
-0.1648117 -0.1585232 0.95139796
-0.1540755 -0.1596864 0.95527238
-0.14448844 -0.15819448 0.95160544
-0.13612024 -0.15821482 0.95419323
-0.15063906 -0.040539686 0.95148933
-0.13402897 -0.042908978 0.95103085
-0.21242774 -0.031724192 0.95220029
-0.20606187 -0.032566965 0.95406634
-0.19280709 -0.031819727 0.95258564
-0.18528439 -0.03301255 0.95250005
-0.17557521 -0.033500999 0.95468307
-0.16298401 -0.03254332 0.95181257
-0.23713577 -0.02004732 0.95171201
-0.23296936 -0.01450916 0.95263177
-0.23056027 -0.0080109555 0.95171201
-0.31179693 -0.1841677 0.96362412
-0.30874026 -0.18279868 0.96542096
-0.29215175 -0.18358527 0.96548051
-0.28649798 -0.1842526 0.96751243
-0.27502462 -0.1831983 0.96566629
-0.26365936 -0.18132077 0.96488613
-0.25575539 -0.18178891 0.96720433
-0.24345499 -0.1813817 0.964324
-0.23935194 -0.1811734 0.96713287
-0.2246386 -0.18130389 0.96612048
-0.20500943 -0.18103461 0.96771282
-0.19376293 -0.1817444 0.96786499
-0.18551064 -0.18225904 0.96685892
-0.17617975 -0.18053657 0.96859962
-0.16533595 -0.1823511 0.96743649
-0.15570302 -0.1819856 0.96384788
-0.14774904 -0.1831909 0.96811473
-0.13897167 -0.1820922 0.9658345
-0.30976358 -0.17833249 0.9627257
-0.29076105 -0.17875035 0.96453601
-0.2768831 -0.17811693 0.96224368
-0.25823021 -0.17827509 0.96404272
-0.24375983 -0.17672384 0.96231776
-0.23453207 -0.17935996 0.96428663
-0.22469458 -0.17623533 0.96402991
-0.21465831 -0.17507601 0.9641645
-0.204758 -0.17578046 0.96553653
-0.19539219 -0.17498012 0.96393162
-0.18564588 -0.17564246 0.96581799
-0.17489529 -0.17545114 0.965774
-0.16544747 -0.17504731 0.96540713
-0.15518685 -0.17611676 0.96652204
-0.14481731 -0.17527723 0.96592867
-0.13468117 -0.17396165 0.9652614
-0.21167761 -0.16992548 0.96305752
-0.20521419 -0.16946714 0.96305764
-0.19551994 -0.1687078 0.96209478
-0.18501608 -0.16803478 0.96305776
-0.17451303 -0.16728996 0.96305764
-0.16405962 -0.16868483 0.96374547
-0.15497257 -0.16803353 0.9639076
-0.14522998 -0.16750588 0.96320176
-0.13512154 -0.16713454 0.96337032
-0.30242339 -0.19015674 0.97332716
-0.29969117 -0.19164938 0.97599381
-0.2818436 -0.19131461 0.97626823
-0.27926698 -0.19015804 0.97768509
-0.26054856 -0.19064753 0.9790417
-0.24424742 -0.1901104 0.97846174
-0.17108089 -0.19345845 0.97602689
-0.15475854 -0.19275221 0.97698295
-0.14130002 -0.19251071 0.97577024
-0.13684162 -0.1929539 0.97937024
-0.30282873 -0.18685697 0.97165281
-0.29804727 -0.18864028 0.97599387
-0.28142354 -0.18769778 0.97513479
-0.27818814 -0.18818322 0.97768509
-0.26661691 -0.185838 0.97285318
-0.25607449 -0.18741933 0.97702712
-0.2456582 -0.18616903 0.97599554
-0.23468967 -0.18372039 0.97132283
-0.22399819 -0.18381423 0.97599286
-0.21521954 -0.18299313 0.97389024
-0.20411707 -0.18224856 0.97251576
-0.19453575 -0.18334138 0.97531801
-0.18479715 -0.18317352 0.9752388
-0.17523971 -0.18408628 0.97543913
-0.1642995 -0.18269171 0.97483993
-0.15634061 -0.18268943 0.97533363
-0.1444696 -0.18390113 0.97597539
-0.13469113 -0.182521 0.97569561
-0.22154599 -0.1771227 0.97099125
-0.21420823 -0.17889109 0.97288269
-0.20547631 -0.17868888 0.97329146
-0.1948452 -0.17858885 0.97469568
-0.18522386 -0.17802486 0.9739126
-0.17496663 -0.17766047 0.97305489
-0.16542508 -0.17761852 0.97408795
-0.1543092 -0.17749771 0.97442424
-0.1447407 -0.17638791 0.97332144
-0.13437118 -0.1760727 0.97456837
-0.29185781 -0.19288988 0.98229325
-0.28703773 -0.19317281 0.98591548
-0.27326393 -0.1925828 0.98294139
-0.26667064 -0.19245082 0.98755598
-0.25452313 -0.19118479 0.98344964
-0.24661146 -0.19321156 0.98962772
-0.23410237 -0.19180945 0.98595554
-0.22553551 -0.1924011 0.9873516
-0.21481691 -0.19207242 0.98783088
-0.20490436 -0.19141211 0.98689967
-0.19541509 -0.19105144 0.98683864
-0.18452552 -0.19035149 0.98784596
-0.17690007 -0.19069527 0.98993129
-0.16379105 -0.19392343 0.98341805
-0.14575876 -0.1944399 0.98433775
-0.13332519 -0.19361866 0.98217195
-0.27510238 -0.1890997 0.98027509
-0.25410512 -0.18848653 0.98271805
-0.23467848 -0.18894333 0.98452485
-0.22487769 -0.18635462 0.98414713
-0.21561791 -0.18563065 0.98377025
-0.20473115 -0.18521406 0.98343718
-0.19521694 -0.18535385 0.98396683
-0.18462366 -0.18519972 0.9843592
-0.175083 -0.18477274 0.98417789
-0.16524114 -0.18501462 0.98467958
-0.15495186 -0.18450777 0.98444664
-0.14538965 -0.18385205 0.98446786
-0.1352227 -0.1836475 0.98461807
-0.17140445 -0.17996138 0.98448247
-0.16598013 -0.17959671 0.98395848
-0.15551987 -0.17883493 0.98448247
-0.14548752 -0.17812349 0.98448247
-0.13551436 -0.17757758 0.98428136
-0.13101634 -0.20175342 0.99600857
-0.28144199 -0.19771181 0.99170387
-0.27542591 -0.19557883 0.99511588
-0.2626386 -0.19379321 0.99087888
-0.2546671 -0.19633177 0.99728173
-0.24331309 -0.19406663 0.99216485
-0.23408447 -0.19276465 0.99653929
-0.2248107 -0.19252937 0.9960286
-0.21520469 -0.19283204 0.99608928
-0.20431872 -0.19229153 0.99560601
-0.19519608 -0.19193509 0.9952538
-0.18463819 -0.19164674 0.99666244
-0.17603712 -0.19125183 0.99441665
-0.16448073 -0.19224827 0.99646729
-0.15604988 -0.19144821 0.99468654
-0.14631507 -0.19089474 0.99421328
-0.13286179 -0.19529575 0.99515337
-0.22087319 -0.1898905 0.99447179
-0.21487352 -0.18948871 0.99571568
-0.20571962 -0.18900469 0.9943471
-0.19428152 -0.18808399 0.99332088
-0.18535104 -0.18754651 0.9950524
-0.17390135 -0.18849409 0.99537796
-0.16508061 -0.18799089 0.99593955
-0.15466295 -0.18743411 0.99587435
-0.14466517 -0.18716012 0.99575293
-0.13471846 -0.18629804 0.99531901
-0.26372799 -0.20087709 1.0051709
-0.26440319 -0.1979035 1.0036087
-0.25801176 -0.197488 1.0077724
-0.24536222 -0.19667511 1.0036186
-0.23484595 -0.19532742 1.0053452
-0.22564214 -0.19479525 1.0049931
-0.21475463 -0.19724666 1.0076085
-0.20472755 -0.19619296 1.0065058
-0.19473697 -0.19523527 1.0049502
-0.18517719 -0.1954492 1.0060539
-0.17474581 -0.19502556 1.0051897
-0.16523202 -0.19373083 1.0053155
-0.15481859 -0.19356696 1.0048012
-0.14503472 -0.19362356 1.0056885
-0.13517815 -0.19253795 1.0048062
-0.21535742 -0.18962932 1.0043627
-0.20496351 -0.18889223 1.0043627
-0.19456957 -0.18815516 1.0043627
-0.18557154 -0.18822053 1.003806
-0.16443884 -0.18906003 1.0078413
-0.15477273 -0.18878168 1.0035982
-0.14708398 -0.18826205 1.0030092
-0.13314959 -0.18888114 1.0058793
-0.25212669 -0.20200539 1.0133109
-0.2480735 -0.2016149 1.0158193
-0.22586456 -0.20028348 1.01745
-0.21562049 -0.20004235 1.0121459
-0.12341164 -0.20214485 1.0140576
-0.25103077 -0.19999933 1.0133109
-0.24324328 -0.19778939 1.0172552
-0.23469478 -0.19685736 1.0147787
-0.22487798 -0.19624999 1.0159564
-0.21505138 -0.19544525 1.0168318
-0.20498915 -0.19531749 1.0175921
-0.1948112 -0.19550307 1.0167277
-0.18559065 -0.19417562 1.0167358
-0.17530921 -0.19328915 1.0161475
-0.16514523 -0.19375719 1.0183418
-0.15505216 -0.19414888 1.015964
-0.14502893 -0.19274727 1.0173218
-0.13460229 -0.19276907 1.0152667
-0.12459043 -0.19353551 1.0147139
-0.16306312 -0.1895884 1.0170565
-0.15424788 -0.18950014 1.0183603
-0.14532581 -0.18868901 1.0179881
-0.13621888 -0.18848956 1.0168239
-0.24347228 -0.20228185 1.0267048
-0.23496358 -0.20161352 1.025393
-0.2258271 -0.2011095 1.0268925
-0.215316 -0.20044151 1.025861
-0.2083067 -0.20199955 1.0287862
-0.19351964 -0.200754 1.0257221
-0.17313153 -0.20052646 1.0274506
-0.16685963 -0.20019941 1.0277981
-0.24393252 -0.19579224 1.0245296
-0.23438862 -0.19593751 1.0245168
-0.22563143 -0.19582054 1.025496
-0.21506326 -0.19669707 1.0249002
-0.20533095 -0.19697629 1.0252696
-0.19474283 -0.1959312 1.0251417
-0.18445432 -0.19505672 1.0255091
-0.17474486 -0.19543979 1.0257101
-0.16549852 -0.19592589 1.0256867
-0.15549633 -0.19664934 1.0252346
-0.1451688 -0.19657862 1.0248446
-0.1350459 -0.19578727 1.0251542
-0.12482359 -0.19552393 1.0240636
-0.18459871 -0.18987682 1.0264864
-0.17628631 -0.18999341 1.0206398
-0.16216502 -0.18999372 1.0245297
-0.15533908 -0.18887104 1.0256416
-0.14491071 -0.18885414 1.0230755
-0.12225787 -0.18838666 1.0240217
-0.24447386 -0.20246124 1.03327
-0.23537502 -0.20181599 1.03327
-0.2252461 -0.20115751 1.032936
-0.21527338 -0.20086104 1.0340314
-0.20344187 -0.20081089 1.0312978
-0.1829699 -0.20020507 1.0316665
-0.24380209 -0.19903909 1.0321627
-0.23470323 -0.19839385 1.0321627
-0.22450227 -0.19794254 1.031955
-0.21302694 -0.19628707 1.0341904
-0.20494479 -0.19592269 1.0337802
-0.19544756 -0.19620529 1.0331876
-0.1857762 -0.19632593 1.0340073
-0.17627364 -0.19540103 1.0351394
-0.16496496 -0.19312866 1.0326656
-0.15330409 -0.19549969 1.0363848
-0.14484477 -0.1944028 1.0322658
-0.13611484 -0.19578812 1.0344871
-0.12415415 -0.19447652 1.0344883
-0.19314122 -0.18975697 1.0324948
-0.17430767 -0.18945901 1.0373313
-0.1657355 -0.18886037 1.0343311
-0.15837595 -0.18870546 1.0328449
-0.14043806 -0.18924367 1.0375497
-0.13488765 -0.18829998 1.0345583
-0.12375595 -0.18804684 1.0362804
-0.20683776 -0.20075877 1.0419729
-0.22278076 -0.19470778 1.0440133
-0.21906468 -0.1933848 1.0444628
-0.20216458 -0.19775817 1.041973
-0.19606204 -0.19607994 1.0428857
-0.18455452 -0.19294856 1.044609
-0.16542979 -0.19398084 1.044222
-0.15618902 -0.19280957 1.0432481
-0.14344785 -0.19381683 1.0467567
-0.135337 -0.19304913 1.0446277
-0.18285772 -0.18928167 1.0435703
-0.14676011 -0.18791755 1.0436984
-0.13637558 -0.18927574 1.0467565
-0.1234193 -0.18895927 1.0415674
-0.16521221 -0.19422889 1.0500202
