# .PCD v0.7 - Point Cloud Data file format
VERSION 0.7
FIELDS x y z normal_x normal_y normal_z curvature
SIZE 4 4 4 4 4 4 4
TYPE F F F F F F F
COUNT 1 1 1 1 1 1 1
WIDTH 596
HEIGHT 1
VIEWPOINT 0 0 0 1 0 0 0
POINTS 596
DATA ascii
0.46792525 -0.25700334 0.96266341 -0.32950073 -0.1973573 0.78136069 0.87065792
0.47267041 -0.25629956 0.96361297 -0.40716419 -0.18102337 0.75775218 0.87905657
0.4130961 -0.25393397 0.96488982 0.085253701 -0.38534778 0.80949211 0.90057683
0.4193618 -0.25128466 0.96370232 0.058810864 -0.38188961 0.8396498 0.92428905
0.42315421 -0.25205404 0.9638868 0.076185562 -0.39282003 0.84365952 0.93374151
0.42695278 -0.2524524 0.96412796 0.073103212 -0.39236969 0.84992307 0.9389714
0.43237242 -0.25290805 0.96409243 0.04317528 -0.40317586 0.85586888 0.94706196
0.4379307 -0.25247851 0.96211046 0.047354769 -0.40701252 0.84981143 0.94344109
0.44279727 -0.25258359 0.96223986 0.010135379 -0.39193493 0.85703629 0.94245791
0.44710052 -0.2523095 0.96218598 -0.06398613 -0.37855503 0.86235094 0.94395304
0.45238975 -0.25271857 0.96254426 -0.14042273 -0.34806144 0.86067796 0.93895251
0.45809069 -0.2520878 0.96244633 -0.1750813 -0.32988957 0.86127424 0.93876189
0.46254781 -0.2523126 0.96260321 -0.24685608 -0.26671091 0.85410386 0.92820579
0.46736929 -0.25279614 0.96303231 -0.30986094 -0.24794582 0.8371011 0.92640656
0.47238183 -0.25191194 0.96352005 -0.38377172 -0.22448117 0.81396687 0.92747754
0.41985515 -0.24932465 0.96413523 0.063748628 -0.40381992 0.84797966 0.94138408
0.42240086 -0.24760342 0.96470374 0.097644001 0.26491848 0.11903384 0.30640692
0.42779595 -0.24913108 0.96486378 0.10476084 0.25095704 0.11187038 0.29405653
0.43251115 -0.24782808 0.96322691 0.096524104 0.22007895 0.10631198 0.26278105
0.43725041 -0.24793011 0.96310997 0.087396093 0.21990168 0.10374206 0.25837421
0.44253644 -0.24752079 0.9629041 0.075276799 0.20978959 0.10311201 0.24558166
0.4480927 -0.24708706 0.96308774 0.089959927 0.1815891 0.096645027 0.22451648
0.45237005 -0.24749768 0.96252191 -0.091381937 -0.42433304 0.87089646 0.97307235
0.45712155 -0.24788336 0.96262139 -0.13774884 -0.37542045 0.87735099 0.96418881
0.46254772 -0.24752456 0.96193874 -0.21670923 -0.35492408 0.87103856 0.9652161
0.46790841 -0.2476629 0.96220344 -0.30618963 -0.32122681 0.86036748 0.96807587
0.47196123 -0.24754614 0.96293479 -0.08140859 0.2297978 0.039629012 0.24699159
0.47549793 -0.24736075 0.96338332 -0.14867251 0.2361773 -0.0017065406 0.2790809
0.42996582 -0.24285707 0.96402431 0.086244851 0.17542963 0.081813991 0.21191332
0.43292305 -0.24202232 0.96442932 0.083363585 0.16531534 0.072466403 0.1988216
0.43765029 -0.24296331 0.96460187 0.07257057 0.15186194 0.067931741 0.18150277
0.44212565 -0.24336839 0.96375871 0.071262859 0.16199967 0.073854387 0.19177267
0.44665518 -0.24312766 0.9631815 0.077755302 0.14268504 0.073880941 0.17850295
0.45307407 -0.24245526 0.96236503 0.10833552 0.13754448 0.076012671 0.19087429
0.45783901 -0.24251243 0.96258765 0.093108915 0.14575899 0.076537013 0.18913716
0.46213347 -0.24261087 0.96293503 0.060141638 0.13906629 0.071709573 0.16762671
0.46716148 -0.24246779 0.9629389 0.0053107142 0.12471171 0.051266789 0.13494258
0.47307849 -0.24214754 0.9633494 -0.1162926 0.092653275 -0.018818408 0.14987572
0.47680321 -0.24246255 0.96448565 0.44663391 0.30987465 -0.816113 0.98058379
0.42710119 -0.23876622 0.96460009 0.061780524 0.14938344 0.07096228 0.17654431
0.43093356 -0.23904483 0.9648689 0.06691286 0.13944149 0.06203711 0.16664292
0.44716161 -0.23804423 0.9640137 0.07108219 0.12485708 0.056461781 0.15436937
0.45291662 -0.238061 0.96416825 0.10958992 0.097476557 0.048804313 0.1545752
0.4574087 -0.23774619 0.963534 0.095559686 0.06983915 0.042024344 0.12559938
0.4629606 -0.23777637 0.96346712 0.049050905 0.043960467 0.029442996 0.072148487
0.46703994 -0.23821257 0.96349967 -0.015017688 0.033926204 0.01008001 0.038446389
0.47114033 -0.23814638 0.96299201 -0.080806956 0.015854776 -0.027112424 0.086696148
0.44809246 -0.23443675 0.9648174 0.081343085 0.085055262 0.038937539 0.12396462
0.45647141 -0.23380239 0.96322489 0.07322681 0.018470019 0.01733923 0.077485204
0.46786612 -0.23451397 0.96363699 -0.017781854 -0.042658344 -0.025375694 0.052724324
0.44770271 -0.27064085 0.96877199 -0.10840181 -0.054171294 0.70615852 0.71648121
0.45176578 -0.27055192 0.96801746 -0.17157625 -0.040209413 0.68327624 0.70563561
0.45559034 -0.27077928 0.96827078 -0.22553596 -0.042631745 0.6758768 0.71378803
0.41804412 -0.26514488 0.96781057 0.049681973 -0.3328869 0.79675549 0.86492848
0.42203897 -0.26543036 0.96750748 0.039859232 -0.31510398 0.80315334 0.863675
0.42750841 -0.26588652 0.96778625 0.05036775 -0.29379633 0.8049742 0.85839188
0.43282685 -0.26604208 0.9673714 0.041906625 -0.28945377 0.81091917 0.86204964
0.4373138 -0.2668975 0.96765244 0.016553655 -0.21899712 0.79982299 0.82942784
0.44292942 -0.26743874 0.96819198 -0.047818005 -0.12971124 0.77382278 0.78607458
0.44776976 -0.2671071 0.96781987 -0.11653525 -0.14241399 0.77799004 0.79945648
0.4527182 -0.26714408 0.96725309 -0.17700166 -0.091893405 0.74514788 0.77137494
0.45722398 -0.26758537 0.96768832 -0.25157249 -0.060032606 0.70552498 0.75143743
0.462396 -0.26677185 0.96767807 -0.3135426 -0.047943234 0.68613923 0.75590646
0.46718687 -0.26546535 0.96719676 -0.36297628 -0.068032712 0.67855954 0.77254337
0.40253991 -0.26042256 0.96960694 0.26810697 -0.3891353 0.68038285 0.82838905
0.40704775 -0.26152736 0.9686116 0.18334399 -0.34460747 0.72574681 0.82406175
0.41220984 -0.26183933 0.96743166 0.1045785 -0.37267107 0.77825034 0.86919159
0.41789049 -0.26218322 0.96693408 0.043616712 -0.39027527 0.81029677 0.90044326
0.42294937 -0.26243076 0.96759683 0.048559327 -0.38202566 0.82200134 0.90773773
0.42690769 -0.26276112 0.96791935 0.039190121 -0.39053771 0.83095998 0.91899407
0.43266231 -0.26251417 0.96803093 0.045574442 -0.37170386 0.84398359 0.92333585
0.43771923 -0.26219243 0.96758378 0.02318028 -0.34025261 0.8528114 0.91847509
0.4426387 -0.26256055 0.96763033 -0.03796773 -0.2722351 0.85201836 0.89525902
0.44710079 -0.26266727 0.96739453 -0.13076468 -0.24293664 0.84144443 0.88552034
0.45254192 -0.26261833 0.96723408 -0.17856988 -0.22022644 0.8284533 0.8756265
0.458222 -0.26218995 0.96749288 -0.23349246 -0.19915543 0.82119322 0.8766641
0.46208948 -0.26266089 0.96772182 -0.28334549 -0.13900371 0.78881395 0.84960824
0.46711859 -0.26282033 0.9682793 -0.34142274 -0.07441178 0.73388827 0.81283367
0.47059637 -0.2610243 0.96775097 -0.38549054 -0.088270307 0.72981322 0.83007348
0.40375239 -0.25745615 0.96859288 0.22892532 -0.38397044 0.7100873 0.83908528
0.40821239 -0.25767934 0.96717644 0.15713446 -0.36384183 0.75447798 0.8522377
0.41232416 -0.25726196 0.96766537 0.11795612 -0.38894367 0.79007685 0.88848877
0.41694596 -0.25795916 0.96815306 0.068361312 -0.43070439 0.81742764 0.92648119
0.4223603 -0.25727585 0.96755099 0.069848202 -0.39724705 0.83959049 0.9314484
0.427865 -0.25750113 0.966959 0.055573441 -0.38292941 0.84935313 0.93334031
0.43231463 -0.25782603 0.96745718 0.078309186 0.286865 0.12656975 0.32317761
0.4372403 -0.25771284 0.96744633 0.081006989 0.29747689 0.12467137 0.33256215
0.44223538 -0.25719804 0.96763647 -0.010063689 -0.34539869 0.87049413 0.93656904
0.44813594 -0.25722453 0.96780139 -0.10283934 -0.29629102 0.87500495 0.92951494
0.45227423 -0.25735551 0.96811622 -0.16814552 -0.27759606 0.87586129 0.93405861
0.45718592 -0.25766104 0.96791935 -0.20098397 -0.25379443 0.86653161 0.92503148
0.46242523 -0.25709617 0.96694559 -0.2610589 -0.20179662 0.84497201 0.90711153
0.46761614 -0.25778976 0.96736604 -0.31393844 -0.17938519 0.82791531 0.90342689
0.47163677 -0.25775298 0.96728623 -0.37710103 -0.15587176 0.7902807 0.88940698
0.47568914 -0.25624841 0.96829033 -0.42045009 -0.13796981 0.78642404 0.9023729
0.40308577 -0.25278825 0.96875966 0.26501969 -0.44143721 0.7097193 0.87681454
0.40767455 -0.25246477 0.96808851 0.22150861 -0.42401639 0.7513057 0.890683
0.41310909 -0.25238171 0.96720237 0.11288533 -0.40423125 0.81245911 0.91445929
0.41775951 -0.25260565 0.9670375 0.063703954 -0.40779531 0.83918369 0.93519217
0.42212641 -0.25266802 0.9670558 0.12402501 0.27259588 0.1195257 0.32245481
0.42758042 -0.25282365 0.96776706 0.11134071 0.24198496 0.10482588 0.28625503
0.4325445 -0.25230134 0.96780419 0.10605675 0.22655374 0.098268598 0.26875889
0.43767703 -0.25205204 0.96766543 0.078540117 0.22725287 0.097526848 0.2594685
0.44205564 -0.25267529 0.96788096 0.089662872 0.24064948 0.099737972 0.27549821
0.44772911 -0.25306627 0.96744937 0.081047542 0.25958109 0.1101135 0.29338717
0.4528141 -0.25217378 0.96692586 -0.14542922 -0.31565166 0.88779283 0.95339483
0.45748267 -0.25275114 0.96720749 -0.18387611 -0.27270755 0.88916343 0.94804615
0.46218899 -0.25283319 0.96747524 -0.22859286 -0.25387037 0.88610643 0.9496786
0.46797282 -0.25245842 0.96760863 -0.034296498 0.28728113 0.065052032 0.29654419
0.4729777 -0.25250483 0.96800834 -0.12102641 0.30097422 0.0074553192 0.32448182
0.47686419 -0.25221732 0.96870041 -0.17413878 0.28693309 -0.035106689 0.33747208
0.40237597 -0.24785578 0.969356 0.29652023 -0.46645343 0.71471298 0.903503
0.40717247 -0.24731435 0.96766829 0.23527239 -0.4614732 0.75732994 0.91752887
0.41202074 -0.24793133 0.967354 0.15598539 -0.44587857 0.80656028 0.93470776
0.41744208 -0.24734658 0.96761024 0.076279983 0.26268139 0.12160569 0.29934612
0.42328045 -0.24724101 0.96760291 0.09168607 0.22987258 0.099152327 0.2666063
0.42777371 -0.24697702 0.96753943 0.088985488 0.2083351 0.088913649 0.24336715
0.43201968 -0.2479347 0.96724415 0.10102972 0.19869119 0.082391381 0.2376416
0.43738082 -0.24755803 0.96705121 0.076189563 0.1889683 0.078616977 0.2183907
0.44288823 -0.24718319 0.96744305 0.085989922 0.16647898 0.073593646 0.20130956
0.44720301 -0.24735576 0.96834779 0.084318079 0.16746326 0.074752867 0.20184517
0.45238486 -0.24750045 0.9679997 0.077353887 0.16552341 0.078138202 0.19871387
0.45771307 -0.24705668 0.96792305 0.085147157 0.18642098 0.07802251 0.21929508
0.46287143 -0.24715683 0.96739864 0.032915242 0.17925113 0.065744221 0.19374385
0.46723697 -0.24783495 0.96768749 -0.028494149 0.17781106 0.045918673 0.1858419
0.47279623 -0.24804971 0.96730572 -0.10665981 0.19929519 0.0104177 0.22628173
0.47580782 -0.24661596 0.9669494 -0.139709 0.15670118 -0.02002725 0.21089086
0.40435687 -0.24221188 0.96858376 0.29978365 -0.51232791 0.73228729 0.94265306
0.40866983 -0.24227574 0.96791577 0.095387481 0.25208354 0.1347411 0.30133045
0.412644 -0.24247377 0.96824974 0.050355949 0.23130146 0.1234487 0.26697505
0.41682926 -0.24301775 0.96847492 0.050915942 0.21778229 0.10628489 0.24762478
0.42206588 -0.2428776 0.9671821 0.076624446 0.19046883 0.087065637 0.22300248
0.4275299 -0.24230479 0.96722877 0.0726588 0.16230126 0.072974056 0.19221398
0.43287209 -0.24224852 0.96774054 0.079044938 0.13627574 0.056398898 0.16733205
0.43724361 -0.24273133 0.96770316 0.08279568 0.14808354 0.06109935 0.18032467
0.44211081 -0.24243033 0.96798575 0.078953639 0.13273583 0.056643754 0.16450226
0.44754687 -0.24236597 0.96688539 0.085904092 0.12178215 0.057907641 0.15988652
0.45272952 -0.24285167 0.96727407 0.094836131 0.1223072 0.05631277 0.16469388
0.45700336 -0.24261853 0.9670884 0.08767958 0.11202121 0.057507515 0.15343915
0.46238485 -0.24271035 0.96725076 0.025169969 0.10301943 0.044853836 0.11514511
0.46767801 -0.2421075 0.96758175 -0.019215316 0.073953107 0.020685315 0.079159163
0.47233126 -0.24267736 0.96730673 -0.094816715 0.085969329 -0.0095422268 0.12834325
0.47609377 -0.24259104 0.9678539 -0.15288667 0.075646192 -0.050084978 0.17777848
0.40499681 -0.23962551 0.96915144 0.089974351 0.24477065 0.13109064 0.29187807
0.40761364 -0.2383015 0.96924323 0.048403956 0.1947654 0.11098891 0.2293361
0.41314772 -0.23722203 0.9681583 0.028292559 0.16512121 0.09279874 0.19151263
0.41815707 -0.23772809 0.96856201 0.026298009 0.15359166 0.079636216 0.17499688
0.42250001 -0.23737545 0.96812212 0.034191377 0.15018004 0.071767539 0.16992256
0.42716697 -0.23787597 0.96844012 0.043283179 0.14070524 0.062250346 0.15983275
0.43279639 -0.23775606 0.9676618 0.062438082 0.12368216 0.052818447 0.14827535
0.43735901 -0.23714052 0.96689999 0.060387041 0.1184302 0.051737517 0.14265019
0.44265047 -0.23737764 0.96713477 0.057152793 0.10487759 0.047000051 0.12835403
0.44683415 -0.237638 0.9675808 0.066253416 0.09147729 0.043440878 0.12101537
0.45258689 -0.23750989 0.96779972 0.10824938 0.067406997 0.034752458 0.13217172
0.457937 -0.23704183 0.96746039 0.088506944 0.02192238 0.0199081 0.093329534
0.46222633 -0.23725715 0.96756524 0.031749822 0.018002376 0.014013499 0.039096225
0.46700963 -0.23750028 0.96781635 -0.019404456 0.0078498274 -0.0027279258 0.021109104
0.47275773 -0.23772708 0.96710008 0.37739879 0.3438912 -0.85065943 0.99212521
0.47703126 -0.23895635 0.96882778 0.46609217 0.31665906 -0.78902501 0.96957481
0.41229606 -0.23387213 0.96872008 0.019259691 0.13185574 0.078284204 0.15454866
0.41771185 -0.2327228 0.96949637 0.013557196 0.09210819 0.054263681 0.10776021
0.42317149 -0.23374701 0.96982187 0.027100824 0.10273145 0.051795453 0.11819888
0.42812929 -0.23237419 0.96824008 0.030322801 0.095048681 0.045385152 0.10960627
0.43209353 -0.23292936 0.96773964 0.045007579 0.10099357 0.043598711 0.11885383
0.43712604 -0.23284176 0.96791333 0.042473078 0.094507754 0.041432858 0.11159015
0.442662 -0.23224309 0.96811056 0.040686041 0.08320035 0.038725764 0.10038594
0.44799063 -0.23255678 0.96769577 0.061370078 0.079564795 0.037254602 0.10716692
0.45233801 -0.23294665 0.96751922 0.069613025 0.04711318 0.026013881 0.087990612
0.45728841 -0.23275807 0.9669497 0.055249337 0.0063208193 0.010617733 0.056614295
0.46263009 -0.23212938 0.96713054 0.01464846 -0.029958457 -0.010545284 0.034975555
0.46760371 -0.23259357 0.96766388 -0.035633877 -0.061524719 -0.040356308 0.081753872
0.4721145 -0.23379649 0.96812439 0.36199304 0.38109466 -0.83845198 0.98958266
0.42927408 -0.22784576 0.96924198 0.030000634 0.059450939 0.028976023 0.072622739
0.43311369 -0.22818318 0.96950454 0.049083907 0.058184147 0.024797469 0.080059595
0.4372181 -0.22820148 0.96874607 0.047187258 0.070481464 0.031748354 0.090566181
0.44183964 -0.22833818 0.96819371 0.037285861 0.058159441 0.028716832 0.074815854
0.44786841 -0.22732152 0.9682731 0.041415583 0.042321444 0.02253598 0.063357919
0.45323452 -0.22792083 0.96842009 0.041425418 0.0084530264 0.0085402131 0.043132983
0.45711237 -0.22786053 0.96851027 0.038833819 -0.017736346 -0.0038299859 0.042863879
0.46229342 -0.22812517 0.96860427 0.0097019523 -0.035340697 -0.016447395 0.040169757
0.46657151 -0.22729939 0.96940517 0.28059912 0.48572183 -0.81771445 0.99162418
0.430121 -0.2244956 0.96998304 0.027257711 0.026778877 0.011839956 0.040003445
0.4424715 -0.22412667 0.96878672 0.041251823 0.026616946 0.013215423 0.050841145
0.44660595 -0.22295077 0.96932679 0.03185967 0.014555812 0.0086714029 0.036084671
0.4517118 -0.22342277 0.96957332 0.016089251 0.0026012063 0.0028594136 0.016547101
0.45797008 -0.22415182 0.96980691 0.022380225 -0.022837788 -0.0095456839 0.033370033
0.46181673 -0.22443502 0.96996081 -0.0094095021 -0.037854567 -0.023815364 0.045702063
0.45302323 -0.27116594 0.97250015 -0.22466105 -0.0061329305 0.70511323 0.74006408
0.45721409 -0.27042398 0.97254521 -0.25891671 0.045718551 0.65897 0.70948541
0.4174518 -0.26506332 0.97014999 0.038878594 -0.42020452 0.80698133 0.91066033
0.42317533 -0.26564103 0.97171992 0.01383945 -0.4386901 0.82762307 0.93680334
0.42685837 -0.26578411 0.97138447 0.042420767 -0.34710944 0.83366418 0.90403563
0.43256667 -0.26578009 0.9722411 0.012555391 -0.40626401 0.85859704 0.94994575
0.43689761 -0.2665433 0.97265315 -0.025449235 -0.3828811 0.86852503 0.94951636
0.44295958 -0.26704055 0.9724741 -0.051647637 -0.31808022 0.86749595 0.92541438
0.44769558 -0.26733601 0.97340471 -0.17348419 -0.38864607 0.86141551 0.96082217
0.45183879 -0.26773602 0.97302467 -0.19342421 -0.10740294 0.81277883 0.84235251
0.45699197 -0.26733556 0.97278601 -0.28560844 -0.025717258 0.74992609 0.80288398
0.46289119 -0.26705188 0.97221452 -0.31871414 0.025535047 0.69824409 0.76796848
0.46792722 -0.2660619 0.97219151 -0.35813004 -0.0017569065 0.72270411 0.80657387
0.40206775 -0.26119903 0.97354239 0.24780923 -0.42610902 0.70316637 0.85873234
0.40780586 -0.26198077 0.97327799 0.16267177 -0.4409284 0.75858927 0.8923775
0.41275054 -0.26180333 0.97181815 0.11445637 -0.42284521 0.79352415 0.90640992
0.41790244 -0.26224431 0.97176611 0.06714946 -0.40462357 0.82576597 0.92201883
0.42237341 -0.26277423 0.97237569 0.039834976 -0.44566834 0.83771908 0.94972646
0.42722914 -0.26253775 0.97265208 0.13275748 0.2522248 0.11214599 0.30629826
0.43328348 -0.26211542 0.97294217 0.056649096 0.20699447 0.092523634 0.23370165
0.43754509 -0.26241153 0.97253317 0.060757086 0.27203605 0.10090396 0.29643995
0.44252911 -0.26318321 0.97284621 0.077728383 0.32272944 0.098120719 0.34615555
0.4477663 -0.26242316 0.97192025 0.049958505 0.37398118 0.10146517 0.3907083
0.45294797 -0.26223189 0.97172242 -0.17412698 -0.22867966 0.87652612 0.92244923
0.45726699 -0.26268458 0.97221541 -0.23021892 -0.12749957 0.85195303 0.89167303
0.46278021 -0.26286563 0.97244322 -0.33387011 -0.024342895 0.76314628 0.83333915
0.46793634 -0.2622714 0.97251922 -0.38341743 0.0028224587 0.74020779 0.83362132
0.47337353 -0.26089087 0.97278482 -0.10999368 0.461797 -0.032830328 0.47584966
0.39863506 -0.25615302 0.97334296 0.27963531 -0.42850342 0.69046247 0.85938907
0.40269858 -0.25730687 0.97244948 0.2686488 -0.40918839 0.70705974 0.85996556
0.40674758 -0.25787538 0.9721902 0.20302458 -0.41098091 0.74704558 0.87647098
0.41221714 -0.25789216 0.97248667 0.15088911 -0.43952715 0.79247856 0.91868055
0.41769162 -0.25721115 0.97273892 0.087713256 0.2457155 0.11841774 0.28651786
0.42322341 -0.25728887 0.97271949 0.10650282 0.21723856 0.096178383 0.26035693
0.42728022 -0.25774634 0.97270727 0.10653985 0.20025901 0.084705532 0.24213517
0.43220982 -0.25794777 0.97236359 0.09053272 0.2106559 0.083631456 0.2440621
0.43765798 -0.25732955 0.97192472 0.091150254 0.23137936 0.088709444 0.26403436
0.442633 -0.25755823 0.97187996 0.070763484 0.25047302 0.09091869 0.27569985
0.44690567 -0.2579411 0.97220796 0.05323039 0.2738221 0.092626721 0.29392472
0.45224378 -0.25801504 0.9726094 0.038204223 0.28627241 0.086213142 0.30140364
0.45792457 -0.25722584 0.97263187 0.060361698 0.27587181 0.084514111 0.29477352
0.46276364 -0.25728363 0.97251046 0.018653452 0.32806283 0.061249971 0.33425251
0.46757022 -0.25786421 0.9730159 -0.094239846 0.42998755 -0.024057537 0.44085056
0.47230572 -0.25746277 0.97210783 -0.13978593 0.4250825 -0.048870236 0.45013723
0.4760074 -0.25580722 0.97114849 -0.16529648 0.355279 -0.046485007 0.3945972
0.39960945 -0.25367296 0.97264594 0.27232182 -0.46172351 0.70378458 0.88468099
0.40259731 -0.25226575 0.97228193 0.27132201 -0.45936963 0.72154486 0.8973645
0.4081468 -0.25218198 0.97352171 0.2002877 -0.4413324 0.78956366 0.92644495
0.41259488 -0.25238645 0.97220457 0.05552109 0.31402159 0.15485951 0.35450476
0.41691798 -0.25255236 0.97252452 0.04867626 0.26590103 0.1275396 0.29889646
0.42225751 -0.25281504 0.97200727 0.090770639 0.21351776 0.091526359 0.24941175
0.42776564 -0.25202268 0.97241271 0.10672519 0.18257862 0.071435094 0.22322229
0.43267646 -0.25243497 0.97274709 0.096236944 0.17332706 0.064469606 0.20847097
0.4369486 -0.25282913 0.97314948 0.090744078 0.17313492 0.063584417 0.20555575
0.44192979 -0.25215867 0.97276706 0.092720933 0.17858762 0.066063166 0.21179011
0.44789919 -0.25206417 0.97160399 0.07891468 0.2174834 0.07769224 0.24405459
0.45275858 -0.25236997 0.97159117 0.051932197 0.23628949 0.080956757 0.255115
0.45705357 -0.25260687 0.97210211 0.06069459 0.24431394 0.077588022 0.26342559
0.46225768 -0.25252727 0.97214699 0.033843517 0.24025629 0.06237942 0.25051877
0.46812576 -0.25221261 0.97236353 -0.019417554 0.22864431 0.043417156 0.23353867
0.47209734 -0.25256032 0.9723509 -0.1451409 0.26850313 -0.028057247 0.3065078
0.47635344 -0.25277227 0.97276413 -0.18999906 0.26895788 -0.068878502 0.33642566
0.48040116 -0.25125563 0.97283578 -0.20764355 0.20810738 -0.078422368 0.30426073
0.39749959 -0.24695618 0.97304142 0.351432 -0.48205733 0.69048607 0.91249919
0.40211588 -0.2475826 0.97323602 0.28288963 -0.4654811 0.74767828 0.92505246
0.40715775 -0.24778147 0.97230655 0.073929839 0.30697444 0.15758678 0.35289165
0.41277981 -0.24720159 0.97185439 0.038186066 0.26554549 0.13307017 0.29946661
0.41809356 -0.247685 0.97257042 0.027161632 0.23665377 0.10939398 0.26212555
0.4222447 -0.24731676 0.97291452 0.050934356 0.19660547 0.081721455 0.21892102
0.42749637 -0.24764788 0.97351247 0.077523507 0.1660507 0.063811988 0.1940482
0.43264458 -0.24724828 0.97203946 0.10091134 0.16928717 0.058326244 0.20553149
0.43781999 -0.24753956 0.97183907 0.089469299 0.15222773 0.055736005 0.18516085
0.44237673 -0.24727762 0.97202283 0.092391059 0.14526629 0.057265818 0.18143257
0.4477264 -0.24792787 0.97250229 0.089386068 0.12992248 0.053101957 0.16640174
0.45270222 -0.24723978 0.97269797 0.081653789 0.12336483 0.051549792 0.15666398
0.4578895 -0.24745199 0.97289026 0.071922526 0.13100469 0.050054848 0.15760891
0.46204305 -0.24740191 0.97305536 0.0293677 0.13601816 0.043856055 0.14589982
0.46761045 -0.24750264 0.97299504 0.0024007261 0.12031628 0.032594651 0.12467631
0.47292161 -0.24713726 0.97234297 -0.095150486 0.13831782 -0.0033028126 0.16791767
0.47754741 -0.24756575 0.97264528 -0.207256 0.15096053 -0.084155351 0.2698634
0.48123392 -0.24831258 0.97327638 -0.22532932 0.16226462 -0.099322766 0.29490358
0.3988727 -0.2428851 0.97268307 0.14588507 0.28479236 0.1255635 0.3437373
0.40300867 -0.24217246 0.97186291 0.10029957 0.26123813 0.12955397 0.308366
0.40734017 -0.24255028 0.9722771 0.045057885 0.24372986 0.12978184 0.27978167
0.41196224 -0.24255729 0.97306454 0.010933362 0.21865728 0.11435792 0.24699853
0.41728127 -0.24256127 0.97294593 0.020673476 0.20383021 0.096145093 0.22631399
0.42313457 -0.24222486 0.97215462 0.020963322 0.17914808 0.080513507 0.19752449
0.42798725 -0.24258582 0.97199273 0.051540464 0.1530465 0.061975926 0.17297591
0.43179941 -0.2426286 0.97240466 0.060021602 0.15240283 0.060130745 0.17448474
0.43764704 -0.24278666 0.97286862 0.079461016 0.13298613 0.051337212 0.16320194
0.44296652 -0.24220103 0.97282028 0.08886148 0.11148666 0.045732141 0.14972329
0.44754109 -0.24193439 0.9724732 0.083008073 0.087518126 0.040087104 0.12710916
0.45232281 -0.24289328 0.97287571 0.092057899 0.078038543 0.036857426 0.12618692
0.45750275 -0.24277394 0.97201264 0.084053829 0.073683411 0.036910772 0.11771446
0.46273947 -0.24215353 0.97186488 0.022473216 0.046469986 0.021348596 0.055859357
0.46738577 -0.24262728 0.97221869 -0.014544651 0.060494587 0.014384359 0.063859627
0.47248504 -0.24294001 0.97235644 -0.099775776 0.062581524 -0.021219641 0.11967425
0.4769688 -0.2422353 0.97253686 0.44173682 0.27300674 -0.82779014 0.9771902
0.39976954 -0.23938462 0.97333348 0.095855922 0.2433738 0.10879377 0.28329355
0.40285668 -0.2376539 0.97300673 0.076417103 0.19910935 0.093248308 0.23276459
0.40782109 -0.23716918 0.97273147 0.0034352392 0.15656391 0.094272316 0.18278766
0.41281164 -0.23756263 0.97210133 -0.00066740811 0.13949701 0.084046721 0.16286102
0.41733471 -0.23727192 0.9720735 0.0088435337 0.14310193 0.076785713 0.16264199
0.42175102 -0.23784897 0.97254854 0.0076081231 0.14597678 0.072629482 0.16322422
0.42757541 -0.23733997 0.97288597 0.041728377 0.12754351 0.055749238 0.14531545
0.43310872 -0.23727502 0.97254199 0.043528654 0.11822462 0.049302518 0.1352869
0.43742159 -0.23746645 0.97239852 0.051491097 0.12141684 0.04975307 0.14095655
0.44203475 -0.23806541 0.97243416 0.070231847 0.10806189 0.045133799 0.13655381
0.44728246 -0.23736933 0.97199357 0.079116121 0.08288686 0.038239688 0.1207968
0.4530445 -0.23738216 0.97244537 0.087628409 0.066654697 0.033030897 0.11494619
0.45709354 -0.23757187 0.97280055 0.067919657 0.04880105 0.027451545 0.088023916
0.46231088 -0.23775758 0.97301322 0.036937311 0.033154503 0.019023389 0.053155199
0.46728998 -0.23697932 0.97279483 -0.00575611 0.00650765 0.00089332461 0.0087338621
0.47277698 -0.23719141 0.97267568 0.35852993 0.34286755 -0.8589806 0.99194229
0.47680739 -0.23785435 0.97298026 0.41677499 0.33918554 -0.81797743 0.97869062
0.40293258 -0.23458271 0.97461283 0.051407605 0.10976771 0.044761449 0.1292102
0.40683714 -0.23304313 0.97247434 -0.011018708 0.1061309 0.073310673 0.12945901
0.41233453 -0.23245947 0.972543 -0.022516698 0.10456729 0.070588887 0.12815659
0.41819283 -0.2320748 0.97263145 0.0078548044 0.083696142 0.049333751 0.09747082
0.42278793 -0.23248677 0.97270215 0.0069844276 0.078769207 0.0443919 0.090686336
0.42715511 -0.23285633 0.97238195 0.02669191 0.089435965 0.044138968 0.10324485
0.43241066 -0.23303907 0.97225207 0.058937423 0.092568576 0.039497077 0.1166301
0.43759128 -0.23210141 0.97234118 0.051342417 0.092749149 0.040171236 0.11336745
0.44279906 -0.23241194 0.9728651 0.043155175 0.092405349 0.042179704 0.11036415
0.44712135 -0.23256966 0.97278047 0.045179468 0.10144004 0.044941872 0.11979582
0.45260498 -0.23254772 0.97297478 0.070376813 0.065207899 0.0326657 0.10135095
0.45786819 -0.2323236 0.97204071 0.049200889 0.018780157 0.015204668 0.054814264
0.46265861 -0.2325722 0.97225714 0.011150301 -0.018607676 -0.0060437918 0.022518931
0.46696147 -0.23286544 0.97209162 -0.026742093 -0.045431241 -0.029141158 0.060235742
0.47265247 -0.23257016 0.97213167 0.36960292 0.43064478 -0.8004452 0.98121035
0.47757092 -0.23451492 0.97306716 0.44535351 0.37131906 -0.77185917 0.9653933
0.40695733 -0.22902471 0.97375679 -0.008359462 0.035759002 0.027735978 0.046020336
0.41189051 -0.22823356 0.97369611 -0.020811826 0.046113789 0.037371069 0.062898412
0.41679391 -0.22836462 0.97315323 -0.018419147 0.041581228 0.03188318 0.055540983
0.42257902 -0.22763795 0.97226048 0.0068295747 0.03141208 0.018627942 0.037153225
0.42799011 -0.22728342 0.97253728 0.024806701 0.040042773 0.020023346 0.051183302
0.43255109 -0.22720779 0.97285032 0.050379869 0.043873578 0.017256021 0.068998493
0.43706146 -0.22746146 0.97310919 0.051557451 0.049528822 0.021968782 0.074792393
0.44264287 -0.22772901 0.97186601 0.048866402 0.03979899 0.019455403 0.065957546
0.44817561 -0.22739124 0.97206372 0.044194996 0.025311217 0.014935315 0.053074654
0.45251197 -0.22747068 0.97211337 0.036067054 0.012364239 0.0098104775 0.039369434
0.45698297 -0.22780095 0.9726463 0.025836818 -0.0018870384 0.0027107298 0.026047075
0.46258429 -0.22727478 0.97264874 -0.026681371 -0.047544196 -0.033413023 0.063943543
0.46794084 -0.22778286 0.9730956 0.30338508 0.47775495 -0.81110978 0.98903561
0.47124144 -0.22903596 0.97401142 0.3593539 0.47516477 -0.77293098 0.9758786
0.41675881 -0.22471724 0.97329056 -0.013382338 -0.0030322373 0.0020431876 0.013872853
0.4223519 -0.22387907 0.97401142 -0.00024546683 0.018369645 0.012394637 0.022161478
0.42704988 -0.2231961 0.97351623 0.021113299 0.016630381 0.0063246787 0.027610552
0.43315068 -0.22270492 0.97244483 0.042331256 0.011457622 0.00018504262 0.043854836
0.43805352 -0.22277111 0.97211194 0.042923309 0.010664463 0.0022946596 0.044287771
0.44210455 -0.22239004 0.97243482 0.030555986 0.0060756505 0.002463609 0.031251419
0.44733313 -0.22276708 0.97296906 0.026566796 0.0042740405 0.0028705895 0.027061086
0.45262271 -0.22196238 0.97252232 0.012043323 -0.0070217252 -0.0031772256 0.014298287
0.4577581 -0.22265597 0.97277081 0.00047901273 -0.038581803 -0.023593783 0.045226667
0.46227506 -0.22353092 0.97330123 0.20456979 0.51507705 -0.82802278 0.99638093
0.46572533 -0.22393867 0.97254467 0.26117638 0.51501763 -0.80531466 0.99095303
0.43311334 -0.21922809 0.97359371 0.036786526 0.0074990094 -0.001521647 0.037573915
0.43882042 -0.21821788 0.97347867 0.03756839 -0.0030664504 -0.006347239 0.038224004
0.44307527 -0.21820867 0.9737637 0.023441723 -0.014516085 -0.011461943 0.029859792
0.44704041 -0.21856505 0.97314417 0.019290239 -0.013538748 -0.0093095601 0.025339276
0.45140967 -0.2189706 0.97317976 0.010902986 -0.0039339364 -0.0019368529 0.011751696
0.45749241 -0.21908067 0.97310942 -0.028219752 -0.039286643 -0.031154335 0.057535965
0.45402485 -0.27025172 0.97636938 -0.0052234158 0.60307992 -0.043135017 0.60464311
0.45788312 -0.27026686 0.97653627 -0.29172111 0.074444503 0.72475386 0.78480017
0.42393875 -0.26539394 0.97546053 -0.0043934062 -0.50399089 0.83810633 0.97798175
0.45437109 -0.26893678 0.97666419 -0.0034150034 0.57174575 -0.034229308 0.57277966
0.45885998 -0.26733145 0.97623265 -0.037348762 0.56202751 -0.067239106 0.56726623
0.4628531 -0.26711872 0.97649747 -0.031538516 0.54357654 -0.073196322 0.54938859
0.46718702 -0.26587316 0.97621119 -0.063217655 0.51307905 -0.058418214 0.52024925
0.39973927 -0.2608121 0.97899866 0.15986583 -0.55867195 0.73111105 0.93391371
0.40243801 -0.26101771 0.97702616 0.21302295 -0.50649762 0.73030651 0.91392899
0.40842363 -0.26178649 0.97674119 0.14670719 -0.49784517 0.77497029 0.93271208
0.41259131 -0.26110008 0.97749847 0.042824373 0.24910973 0.14168385 0.28976524
0.41664892 -0.26157945 0.97729689 0.049712822 0.18456578 0.1041564 0.21767969
0.422782 -0.26285237 0.97587401 0.084349185 0.20365408 0.098490506 0.24143353
0.42513344 -0.26070714 0.97649997 0.083279878 0.1514108 0.068831801 0.18600695
0.44860134 -0.2631627 0.97516298 0.021814421 0.20552471 0.078065306 0.2209309
0.452351 -0.26357493 0.97527295 0.00083697587 0.27505925 0.075112879 0.28513196
0.45685801 -0.26306984 0.97559482 -0.013840072 0.40992606 0.023422897 0.41082788
0.46300569 -0.26252663 0.97596931 -0.05912526 0.48209193 -0.05245617 0.48852849
0.46776345 -0.26264852 0.97677356 -0.067952365 0.45391741 -0.056576818 0.46244943
0.47250006 -0.26135537 0.97654659 -0.098516986 0.41350994 -0.048282117 0.42781684
0.39712754 -0.25634447 0.97832447 0.31062433 -0.47649461 0.71017373 0.9098798
0.40174589 -0.25778165 0.97797465 0.23075631 -0.4749341 0.74771369 0.91536146
0.40747204 -0.25747049 0.97696847 0.20877388 -0.41969112 0.7855773 0.91479993
0.41317895 -0.25723669 0.97749579 0.017529078 0.25005573 0.12529913 0.28024098
0.4178513 -0.25775537 0.97725028 0.03540558 0.18538274 0.089718461 0.20897301
0.42169639 -0.25900516 0.97655445 0.066513024 0.16174425 0.072439283 0.1892951
0.42670959 -0.2566289 0.97529083 0.098660029 0.16878241 0.063276231 0.20548768
0.43159947 -0.25724265 0.97527766 0.07411997 0.1661813 0.061749846 0.19215369
0.4619312 -0.25779372 0.97573924 -0.020839185 0.37009192 0.013860554 0.37093723
0.46790975 -0.25756776 0.97661662 -0.099390224 0.39558619 -0.047654659 0.41065535
0.47258967 -0.25682312 0.97616881 -0.15149224 0.34855998 -0.066301316 0.38579765
0.47868785 -0.25503096 0.97568905 -0.18502751 0.26392612 -0.070193261 0.32987764
0.39488962 -0.25072792 0.97789502 0.37908405 -0.44610709 0.69061261 0.90535188
0.39855379 -0.25259665 0.97705913 0.31596348 -0.45120084 0.72640991 0.91163939
0.40279347 -0.2527338 0.97710544 0.059154846 0.32517213 0.16589871 0.36980885
0.4068833 -0.25252581 0.97765279 0.024330333 0.28733489 0.14770249 0.32398969
0.41155064 -0.25275147 0.9783988 -0.015590452 0.23325944 0.11845925 0.26207942
0.41813952 -0.2523407 0.97682631 0.0036996603 0.20228723 0.09523651 0.2236153
0.42276102 -0.25203919 0.9756074 0.058792304 0.18518749 0.072806001 0.20748892
0.42775112 -0.25280604 0.97587466 0.077900231 0.1403102 0.051349401 0.16849972
0.43167472 -0.25292653 0.97615975 0.068077639 0.15116054 0.05139038 0.17356567
0.44462532 -0.25052923 0.97515571 0.0796533 0.14494446 0.051426202 0.17319988
0.44830832 -0.25120631 0.97524059 0.076328926 0.16492477 0.052123427 0.18905856
0.45215961 -0.25157082 0.97538322 0.043425687 0.17995007 0.050705612 0.19193457
0.45719537 -0.25209543 0.97553152 0.063379914 0.20309179 0.052346289 0.21909682
0.4629634 -0.25482881 0.97521442 0.0070170462 0.27298871 0.042101979 0.27630535
0.46737343 -0.2530736 0.97576451 -0.077785119 0.2775839 8.136034e-06 0.28827649
0.47236153 -0.25309336 0.97610939 -0.171583 0.28623387 -0.066311806 0.34024671
0.47816056 -0.25187072 0.97724646 -0.20693363 0.20434077 -0.089843035 0.30438209
0.39725855 -0.24786481 0.97778571 0.11815361 0.29598352 0.13140395 0.34472236
0.40335566 -0.24743579 0.97804868 0.025575459 0.26232305 0.13188398 0.29472166
0.40803981 -0.2475538 0.97701865 0.0012758523 0.24107373 0.12518126 0.27164039
0.41258308 -0.24783555 0.97740465 -0.025062278 0.23010567 0.11406782 0.25804693
0.41687334 -0.2475888 0.97721213 -0.019631766 0.22068843 0.1003764 0.24323694
0.42152891 -0.24795376 0.97736186 0.016886786 0.19021171 0.080364674 0.20718142
0.42745838 -0.24752656 0.9769088 0.044721756 0.17829928 0.063035488 0.19432998
0.43245554 -0.24599123 0.97521991 0.081809223 0.14577869 0.050922722 0.17474924
0.43765196 -0.24695161 0.97541791 0.086921841 0.14899956 0.051950991 0.18015321
0.44176382 -0.24793495 0.97550261 0.082945235 0.13198611 0.04762882 0.16299923
0.44655362 -0.24805379 0.97578663 0.088076234 0.138769 0.04456234 0.17029405
0.45286489 -0.24887113 0.97598702 0.062430095 0.12782788 0.044531047 0.14906542
0.45690531 -0.24818943 0.97634304 0.051610555 0.12518129 0.040576369 0.14135221
0.46979004 -0.24577902 0.97504556 -0.0031369776 0.07853993 0.020150214 0.081144266
0.47308311 -0.2467988 0.97641283 -0.18589288 0.13808431 -0.067975879 0.24133827
0.4776946 -0.24754152 0.97740746 0.47636157 0.18063197 -0.81658959 0.96247953
0.48071471 -0.24754748 0.97729039 -0.21891898 0.12865876 -0.099342495 0.27266744
0.39757437 -0.24245623 0.97752166 0.10931991 0.24568602 0.089310229 0.28335276
0.40174806 -0.24285226 0.97687376 0.057686239 0.23393513 0.11002544 0.26487535
0.40713128 -0.24285303 0.97726053 -0.016674116 0.21271183 0.11471725 0.24224862
0.41143271 -0.2421896 0.97736478 -0.037323803 0.18552974 0.10552683 0.21668009
0.41870433 -0.24197951 0.97689521 -0.027485318 0.17266773 0.086604297 0.19511507
0.42248219 -0.24257876 0.97759962 0.010080472 0.17495698 0.075594187 0.19085607
0.42703381 -0.24250644 0.97664481 0.044323124 0.16369599 0.061476946 0.18038939
0.43169788 -0.24252339 0.9765985 0.051833414 0.14680994 0.053670168 0.16468257
0.43794379 -0.24171126 0.97650468 0.064836711 0.14161837 0.053135782 0.16456906
0.44254106 -0.24331254 0.97650486 0.06922403 0.099453449 0.040767878 0.12784746
0.45160684 -0.24058688 0.97526854 0.096279956 0.083718777 0.036269784 0.13264298
0.45747262 -0.24167906 0.97536409 0.068494543 0.071974725 0.033431828 0.10483105
0.46292415 -0.24224237 0.97551483 0.021350987 0.067493267 0.02558431 0.075271264
0.46673757 -0.24214689 0.97604197 0.014832526 0.050324708 0.018270552 0.055555314
0.47291824 -0.24255481 0.97687918 0.40064031 0.27995726 -0.85669684 0.98631543
0.47830698 -0.24232706 0.97713935 0.46692932 0.24033399 -0.81199634 0.96701682
0.48147929 -0.24464084 0.97803217 0.46172562 0.20703048 -0.82288766 0.96602088
0.39916399 -0.23751305 0.97734845 0.089865252 0.15017025 0.043627709 0.18036142
0.40298909 -0.23746982 0.9776243 0.0076583177 0.14714159 0.077368736 0.16641881
0.40729773 -0.23747063 0.97796685 -0.038350835 0.14056382 0.087764621 0.17009293
0.41175386 -0.23746164 0.97772974 -0.059731714 0.12716401 0.085315973 0.16436964
0.41670784 -0.23772478 0.97670782 -0.029561415 0.12319507 0.073688984 0.14656387
0.42305383 -0.23736601 0.97699779 -0.0048560575 0.11367367 0.058436334 0.12790656
0.42801923 -0.23760986 0.97785097 0.020990171 0.11960348 0.054074585 0.13292719
0.43212819 -0.23722737 0.97773033 0.021102723 0.12466061 0.055054426 0.13790062
0.4370977 -0.23750667 0.97682071 0.057478797 0.12252273 0.050017416 0.14428227
0.44223204 -0.23679195 0.97597742 0.064579949 0.12259513 0.049100637 0.14700684
0.44781953 -0.23726165 0.97572255 0.084038287 0.096315756 0.039678454 0.13384147
0.45241031 -0.23749864 0.97595835 0.0795599 0.089698493 0.039228171 0.12615247
0.45740116 -0.23813203 0.97610521 0.05857702 0.067557976 0.032247722 0.095054001
0.46309757 -0.2372967 0.9765687 0.032959618 0.04579635 0.022499621 0.060744341
0.46774796 -0.23761192 0.97796309 -0.036717914 0.011252329 -0.0067575872 0.0389934
0.47209013 -0.23760244 0.97826296 0.3828924 0.38232607 -0.82142895 0.98362869
0.47615194 -0.23743908 0.97773612 0.42437723 0.36212495 -0.79701555 0.97286397
0.39978909 -0.2336936 0.97925276 0.075679466 0.063112736 -0.0047413111 0.098656371
0.40316996 -0.23331481 0.97829211 0.01447919 0.080965936 0.040225774 0.091560051
0.40779054 -0.23236476 0.97692096 -0.042481318 0.076237336 0.060871392 0.10640545
0.41323248 -0.23250042 0.9772346 -0.050022721 0.075239256 0.058833033 0.10781718
0.41721812 -0.23266584 0.97771722 -0.042146184 0.081257313 0.057012528 0.10784007
0.42209178 -0.23256125 0.97792816 -0.014231548 0.080945313 0.048040032 0.095197298
0.42743292 -0.23272701 0.97755808 0.016607188 0.081582263 0.041377336 0.092970692
0.43289393 -0.23245943 0.9767946 0.055363387 0.081488192 0.03522706 0.10462493
0.43779016 -0.23238993 0.97726858 0.058187999 0.091893882 0.039344102 0.11566454
0.44171071 -0.23258874 0.9775911 0.060971446 0.098275647 0.042147726 0.12309366
0.4469966 -0.23220737 0.97750074 0.06350825 0.084416255 0.039467812 0.11277016
0.45342389 -0.23187858 0.97696048 0.061263315 0.058194369 0.030698627 0.08990097
0.45802981 -0.23179503 0.97665507 0.026261982 0.028221279 0.01685375 0.042073522
0.46740466 -0.23254448 0.9770422 0.31053716 0.44242615 -0.8307749 0.99114132
0.47310847 -0.23261112 0.97696704 0.38054419 0.43814856 -0.78484738 0.97610116
0.47689927 -0.23414953 0.97701859 0.41227013 0.40598148 -0.77912998 0.97047985
0.40736842 -0.22845379 0.97795284 -0.020206079 0.015327632 0.018640578 0.031475279
0.41240865 -0.22769317 0.97805333 -0.049859203 0.017559022 0.028485954 0.060047556
0.41801211 -0.22718829 0.97704262 -0.031098649 0.015666068 0.019464463 0.039892569
0.42308873 -0.2276662 0.97715545 -0.0082251802 0.031583294 0.022031277 0.039376836
0.42733097 -0.2272692 0.9772802 0.0059322938 0.042769566 0.025292814 0.050041527
0.43240193 -0.2280395 0.9778924 0.043858524 0.060593173 0.027721077 0.079771928
0.43739671 -0.22694345 0.97798562 0.052271582 0.061655104 0.028141111 0.085589677
0.44276035 -0.22742446 0.97724152 0.04572133 0.047941029 0.024708569 0.070705697
0.44722298 -0.22765446 0.977305 0.049396612 0.033420116 0.01888603 0.062558867
0.45252204 -0.22791442 0.97708303 0.037265692 0.03104651 0.018927515 0.052065998
0.45753407 -0.22738101 0.97705537 0.022987004 -0.0087574124 -0.0016485155 0.024653848
0.46287885 -0.2272808 0.97740734 -0.036459886 -0.035838827 -0.028894901 0.058725294
0.46704045 -0.22749238 0.97773534 0.315541 0.51192421 -0.77467251 0.98068857
0.47108066 -0.22877103 0.97756201 0.35123768 0.48515144 -0.76967442 0.9752633
0.41154262 -0.22418907 0.97757608 -0.030593321 -0.012199879 0.0032500923 0.033096094
0.41693291 -0.22318304 0.97757083 -0.025061354 -0.0058779716 0.003703326 0.026006473
0.4223448 -0.22247697 0.97791064 -0.011753008 0.0095043182 0.0096589327 0.017937677
0.42826644 -0.22194675 0.97749645 0.017113715 0.02633366 0.013880372 0.034336653
0.43279481 -0.22265002 0.97738749 0.035116199 0.036832377 0.017543852 0.053828973
0.43683842 -0.2226532 0.97704285 0.035284162 0.025770098 0.012191623 0.045361944
0.44233537 -0.22290124 0.97720981 0.032411069 0.018299371 0.0098541677 0.038502585
0.4480446 -0.22226843 0.97751433 0.034620348 0.014971167 0.0094287395 0.038879372
0.45274031 -0.22236472 0.97793907 0.022255437 0.00283584 0.0031653643 0.022657583
0.45711529 -0.22258864 0.9778704 -0.011618719 -0.0065419823 -0.0055022836 0.014424537
0.46218339 -0.22236398 0.97788101 0.20626558 0.55896628 -0.79161203 0.99077666
0.46680263 -0.22339813 0.97734183 0.30469283 0.53377962 -0.76248902 0.979361
0.42330232 -0.21940544 0.97971028 -0.01396358 0.0079184771 0.0090147853 0.018410601
0.42713606 -0.21889459 0.97740757 0.017084703 -0.000428617 -0.0044975281 0.017671971
0.43286464 -0.21784553 0.97734952 0.038567036 -0.031717509 -0.032557994 0.059610732
0.43806243 -0.21735363 0.97791946 0.026159432 -0.022168905 -0.019999653 0.039695874
0.44249412 -0.21698365 0.97763288 0.021001682 -0.018807173 -0.015199304 0.032028101
0.4472217 -0.2174966 0.97781044 0.009700329 -0.024650663 -0.018098414 0.03208277
0.45233887 -0.21757504 0.97681797 -0.0018410105 -0.032740057 -0.02399686 0.040634345
0.45801237 -0.21848372 0.97733814 -0.029394444 -0.035512805 -0.02885437 0.05438536
0.46183902 -0.21916717 0.97719496 0.18671323 0.54963475 -0.80882704 0.99557084
0.43485126 -0.21437486 0.97939175 0.036742382 -0.032362223 -0.03313148 0.059118617
0.43896377 -0.21449839 0.9786678 0.026597988 -0.03462413 -0.031036466 0.05356814
0.44285241 -0.21470784 0.97903967 0.0035385415 -0.044476718 -0.036076218 0.057377636
0.44708261 -0.21465991 0.97795695 0.018954571 -0.040319264 -0.031830609 0.054754969
0.45097193 -0.21494208 0.97817409 -0.00051376317 -0.042705953 -0.032753766 0.053822596
0.3960416 -0.25646731 0.98192924 0.020413667 0.28635597 0.17642418 0.33695987
0.40103859 -0.25558373 0.9801476 0.039099693 0.32229206 0.17572054 0.36915943
0.39414185 -0.25088081 0.98026133 0.15083444 0.32915172 0.11846331 0.38095331
0.39754346 -0.25253826 0.98096895 0.05148831 0.30615675 0.14908686 0.34439787
0.40181267 -0.25246906 0.98083222 0.02708827 0.29364133 0.14241889 0.32747847
0.3946538 -0.24880311 0.98071635 0.11596429 0.27616864 0.10512805 0.31744093
0.39801013 -0.24733107 0.98138762 0.026643947 0.23948425 0.11572117 0.2673088
0.40327919 -0.24720567 0.98143333 -0.017783836 0.22070751 0.1143069 0.24918695
0.40811285 -0.24626133 0.98022449 -0.047674671 0.21754655 0.11598209 0.25110003
0.41200012 -0.2469943 0.98048019 -0.047524564 0.20435049 0.10626468 0.23518054
0.41544104 -0.24949543 0.98032677 -0.054975159 0.18881628 0.093113452 0.2175867
0.48062262 -0.24614984 0.98008353 0.45593792 0.21242785 -0.82773089 0.96857804
0.39751178 -0.24264486 0.98172534 0.060078666 0.19987264 0.069834441 0.22008036
0.4019542 -0.24205896 0.98135513 -0.0041080862 0.19306779 0.093310952 0.21447374
0.40816101 -0.24198559 0.98105633 -0.074735425 0.18901621 0.10672405 0.22957033
0.41310862 -0.24257189 0.98145527 -0.072266668 0.18278295 0.097827345 0.21955015
0.42236102 -0.24071822 0.98025131 -0.014725529 0.15208051 0.070838183 0.16841428
0.42627078 -0.24098665 0.98054516 0.023991056 0.15475333 0.0611265 0.16810893
0.47402954 -0.24079683 0.9810487 0.43590835 0.3228963 -0.80908132 0.97411025
0.47785088 -0.2413573 0.98105091 0.46217892 0.27725154 -0.80300295 0.96710467
0.3977001 -0.23756009 0.9822461 0.067737028 0.11820756 0.024775207 0.13847433
0.40183973 -0.2373886 0.98240858 -0.0034980774 0.12653801 0.064755291 0.14218773
0.40672898 -0.23779421 0.98171252 -0.075887613 0.14030781 0.090995282 0.18364464
0.41135827 -0.23715314 0.98156226 -0.099286467 0.12975052 0.08860904 0.18586168
0.41775107 -0.23699898 0.98054838 -0.065021858 0.10911295 0.069744945 0.1449063
0.42325011 -0.23720162 0.98102909 -0.019213691 0.11885974 0.060660064 0.13482004
0.42716321 -0.23747115 0.98132372 -0.0067853555 0.12711866 0.059656411 0.14058478
0.47460979 -0.23861949 0.98153865 0.42598894 0.3648299 -0.79422134 0.97229367
0.4763549 -0.2370405 0.98193669 0.40655145 0.38391191 -0.7987107 0.97499293
0.39891696 -0.23359646 0.98230243 0.065213665 0.056359217 -0.0034168959 0.086260408
0.40338618 -0.23237103 0.98246038 0.00038787723 0.032126889 0.019795388 0.037737843
0.40785408 -0.2321649 0.98180473 -0.06110739 0.055178046 0.053261876 0.098058946
0.41195092 -0.23307276 0.98117596 -0.087568365 0.085867479 0.070402741 0.14141424
0.41685379 -0.23256935 0.98132861 -0.071962669 0.080313578 0.061427414 0.1241057
0.42247245 -0.23221813 0.98194003 -0.036268309 0.086254045 0.054204464 0.10813545
0.42882544 -0.23135121 0.98147452 0.0064540133 0.07633251 0.040740669 0.086764671
0.43298626 -0.23226812 0.98042995 0.046377692 0.080949977 0.036289096 0.10010339
0.4576247 -0.23064981 0.98006141 0.0028651953 0.037351236 0.017603517 0.041390914
0.46714851 -0.23165928 0.98032725 0.34365469 0.46002829 -0.79872751 0.98371243
0.47293276 -0.23213038 0.98047084 0.3878029 0.46510297 -0.75550354 0.96824449
0.47622758 -0.23432842 0.98011792 0.41023958 0.41593543 -0.77356005 0.96937817
0.40447271 -0.2287154 0.98263633 0.010469288 -0.0041989386 -0.0080758929 0.013872892
0.40842229 -0.22749509 0.98244816 -0.057829134 0.018093303 0.032759964 0.068882443
0.4131678 -0.22672963 0.98247248 -0.083207741 0.043799281 0.050228477 0.10660584
0.41795596 -0.22682256 0.98165214 -0.041812263 0.035336256 0.034243584 0.064571969
0.4219878 -0.22711121 0.98188412 -0.029641427 0.049398467 0.037366211 0.068666272
0.42728055 -0.22769625 0.9826256 -0.0012507215 0.062005758 0.037248671 0.072344601
0.43256858 -0.22710598 0.98162472 0.033938307 0.074285954 0.036618084 0.089504719
0.43828404 -0.22710496 0.98189515 0.03823017 0.073113158 0.036529303 0.090230092
0.44303489 -0.22568643 0.98048478 0.034417681 0.054661945 0.029147744 0.070866749
0.44691128 -0.22637752 0.98027694 0.056271374 0.051075399 0.026974827 0.080639973
0.45282114 -0.22757486 0.98041576 0.037597224 0.046973959 0.026176929 0.065615058
0.45777124 -0.22723602 0.98078126 0.02507931 0.037813902 0.021406949 0.050170913
0.4623498 -0.22742967 0.98099083 0.24001752 0.50455618 -0.82157856 0.99356765
0.46704674 -0.2288914 0.98091048 0.3473852 0.50273502 -0.75971651 0.97498113
0.40958127 -0.22397229 0.98468757 -0.012774795 -0.024000436 -0.011928678 0.029690228
0.41305384 -0.22334333 0.98204803 -0.064733423 0.009986788 0.027107626 0.070887059
0.41773722 -0.22222491 0.9820807 -0.031328902 0.00630337 0.01373297 0.034782566
0.42327294 -0.22232562 0.98264235 -0.020289205 0.03732416 0.029014468 0.051444963
0.42730993 -0.22234532 0.98316312 0.010227382 0.045395836 0.026446432 0.053523779
0.43208328 -0.22260781 0.98280787 0.030659448 0.030596584 0.014281243 0.045608185
0.43742839 -0.22245894 0.98190123 0.039866466 0.024395823 0.01056385 0.047917496
0.44279221 -0.22242253 0.98189431 0.02813853 0.028534755 0.016259223 0.043247789
0.44791976 -0.22246978 0.98114711 0.040122382 0.027691588 0.016246289 0.05138649
0.45182428 -0.22274682 0.98135227 0.042606711 0.025963336 0.016111344 0.052430928
0.45782909 -0.22320844 0.98162377 0.15953094 0.54574525 -0.81815088 0.99632269
0.46281347 -0.22179374 0.98198146 0.2599763 0.58385026 -0.74026626 0.9779892
0.41964659 -0.21910654 0.98423976 -0.017607182 -0.031984836 -0.019490153 0.041387297
0.42331851 -0.2187839 0.98318774 -0.00029253215 -0.0020609498 -0.0014154017 0.0025172308
0.42825335 -0.21762042 0.98156965 0.02232182 -0.021741718 -0.022371829 0.038359676
0.43311086 -0.21755344 0.98229325 0.033554409 -0.032434374 -0.032324791 0.056769524
0.43714964 -0.21713997 0.98257554 0.028227132 -0.020907909 -0.019959956 0.040401872
0.44228634 -0.21763699 0.98346442 0.026752004 -0.015277416 -0.013186127 0.033510342
0.44727826 -0.2169157 0.98259109 0.010944788 -0.014564008 -0.010571808 0.021063281
0.45297745 -0.21701001 0.98159075 0.082585461 0.644813 -0.74804294 0.99104613
0.45749077 -0.21792452 0.98209339 0.18210673 0.65712523 -0.69649768 0.97472322
0.46094972 -0.21892512 0.98151004 0.2185362 0.63948828 -0.69782203 0.97142106
0.43393278 -0.21442471 0.98287952 0.023243126 -0.037207752 -0.034897298 0.056057837
0.43786782 -0.21396951 0.98363304 -0.11248177 0.68390846 -0.70748305 0.99041164
0.44213721 -0.21412802 0.98264056 0.01426529 -0.03192085 -0.026166618 0.04367071
0.44633567 -0.21401373 0.98184645 0.012300761 -0.042445302 -0.03398928 0.055751085
0.45028055 -0.21440183 0.9817757 0.04985898 0.67082739 -0.72476971 0.98883086
0.40298405 -0.2312642 0.98502922 -0.006862253 0.028666958 0.020339489 0.035813123
0.41732073 -0.22576806 0.98515999 -0.077124938 0.063085988 0.05593887 0.11426835
0.41405767 -0.22244258 0.98546755 0.0015494674 -0.090736359 -0.083694458 0.12345141
0.41820741 -0.22223067 0.98593986 -0.0053386241 -0.040732771 -0.030168265 0.050968457
0.4226746 -0.22076103 0.98667169 0.037591241 -0.074910223 -0.082311064 0.11747236
0.43236366 -0.22083598 0.98509181 0.030581381 0.034317344 0.016749382 0.048922822
0.43524915 -0.22102287 0.98530161 0.03577983 0.034897476 0.016993284 0.052790165
0.41907188 -0.21878186 0.98670024 0.036657423 -0.10885352 -0.12770149 0.17175718
0.4236213 -0.2179147 0.98644572 0.041291438 -0.10990784 -0.12993655 0.17512345
